ncols 	590
nrows 	34
xllcorner 	-2868800
yllcorner 	2100792
cellsize 	10000                                                                                                                                                                                                                                                                                                                                                                                                                                                                                                                                                                                                            
NODATA_value 	-9999                                                                                                                                                                                                                                                                                                                                                                                                                                                                                                                                                                                                            
-2026 -2008 -1905 -1716 -2290 -2758 -2898 -2618 -2151 -2034 -2325 -2576 -2733 -2793 -2749 -2664 -2602 -2607 -2628 -2706 -2761 -2741 -2867 -2946 -2983 -2997 -3000 -3000 -3002 -3003 -2996 -2986 -2939 -2763 -3008 -3326 -3603 -3773 -3799 -3614 -3635 -3600 -3586 -3616 -3674 -3614 -3734 -3959 -4014 -4291 -4378 -4296 -4397 -4413 -4417 -4413 -4413 -4405 -4399 -4397 -4400 -4417 -4423 -4421 -4416 -4397 -4386 -4124 -4178 -4175 -4307 -4357 -4459 -4565 -4588 -4584 -4571 -4273 -4226 -4182 -4232 -4323 -4364 -4458 -4486 -4537 -4602 -4602 -4569 -4562 -4501 -4544 -4612 -4648 -4792 -4768 -4734 -4693 -4689 -4577 -4643 -4716 -4781 -4795 -4804 -4806 -4780 -4734 -4706 -4662 -4597 -4496 -4466 -4415 -4368 -4301 -4222 -4172 -4127 -3991 -3754 -3431 -3068 -2731 -2677 -2618 -2508 -2483 -2432 -2338 -2235 -2199 -2183 -2114 -2043 -1954 -1753 -1503 -1130 -820 -530 -343 -226 -187 -166 -159 -152 -146 -141 -138 -135 -132 -103 -103 -108 -126 -117 -109 -110 -110 -112 -117 -114 -109 -104 -101 -101 -101 -102 -102 -97 -99 -99 -100 -100 -100 -99 -99 -90 -84 -76 -70 -61 -54 -49 -49 -47 -49 -40 -15 -5 -1 -1 -1 -1 7 -5 -1 -1 -3 39 68 132 98 76 124 144 170 119 76 58 118 154 122 108 103 104 92 59 69 66 62 53 46 19 1 0 0 -2 -6 -15 -25 -29 -30 -32 -33 -33 -31 -30 -29 -27 -24 -22 -20 -19 -19 -16 -2 -5 -5 -4 -2 -2 -2 6 12 8 21 52 51 16 26 17 20 30 44 51 62 68 50 43 54 66 103 131 124 123 127 148 179 198 159 138 159 139 154 132 135 131 119 121 128 129 121 155 122 112 59 52 72 87 106 129 143 91 66 52 49 46 51 50 56 52 50 53 62 84 89 53 46 44 65 71 63 66 63 63 67 73 89 107 95 83 88 97 105 111 142 140 128 110 122 125 140 137 126 141 136 152 171 198 220 207 202 193 173 160 163 169 154 135 134 147 139 118 109 113 118 123 150 148 146 156 165 158 162 171 175 180 173 168 174 197 193 191 189 178 175 179 175 166 169 173 175 171 170 186 186 169 170 179 174 171 180 30 20 43 206 207 213 210 204 221 218 197 189 189 194 183 174 154 162 172 165 170 164 152 158 145 103 124 123 119 107 107 102 111 119 124 128 123 120 113 104 105 109 108 97 142 127 105 117 104 105 138 122 131 144 132 104 114 120 122 122 129 136 141 152 152 152 152 152 125 123 129 151 146 149 153 164 166 166 158 161 183 176 178 171 181 212 221 213 209 193 184 184 172 182 154 149 196 178 160 153 159 153 137 122 118 114 132 118 95 91 83 81 61 75 108 100 92 114 122 122 122 122 122 122 122 122 121 121 122 122 131 151 146 129 123 109 56 30 12 0 0 0 0 0 0 0 0 0 0 0 -1 -13 -16 -30 -30 -30 -30 -30 -30 -30 -30 -30 -30 -30 -30 -30 -30 -30 -30 -30 -30 -30 -30 -30 -30 -30 -30 -30 -30 -30 -30 -30 -27 -19 -5 26
-2024 -1947 -1641 -1868 -2588 -2836 -2491 -2097 -2023 -2034 -2484 -2522 -2656 -2826 -2720 -2602 -2607 -2707 -2837 -2848 -2939 -2987 -2816 -2890 -3004 -3000 -2999 -3000 -3002 -3002 -2995 -2992 -2996 -2901 -3012 -3112 -3533 -3651 -3843 -3882 -3694 -3550 -3596 -3615 -3586 -3618 -3777 -3993 -4013 -4150 -4166 -4324 -4340 -4334 -4354 -4359 -4416 -4417 -4404 -4401 -4407 -4416 -4423 -4423 -4416 -4408 -4393 -4233 -4202 -4205 -4289 -4350 -4389 -4396 -4529 -4584 -4416 -4310 -4204 -4193 -4222 -4333 -4424 -4509 -4575 -4585 -4602 -4591 -4542 -4465 -4413 -4543 -4585 -4627 -4774 -4758 -4726 -4683 -4650 -4553 -4649 -4725 -4767 -4794 -4806 -4806 -4787 -4746 -4714 -4684 -4599 -4544 -4483 -4428 -4387 -4305 -4218 -4176 -4125 -3977 -3569 -3018 -2685 -2336 -2356 -2367 -2354 -2446 -2373 -2241 -2177 -2116 -2010 -1963 -1927 -1668 -1509 -1314 -1039 -709 -482 -296 -214 -179 -164 -159 -154 -145 -142 -139 -134 -124 -116 -130 -123 -124 -109 -103 -103 -101 -102 -115 -115 -113 -109 -105 -106 -107 -106 -101 -100 -100 -100 -100 -100 -100 -99 -95 -88 -83 -76 -70 -63 -56 -50 -49 -5 -44 -27 -11 16 11 -3 -3 -3 -1 -3 -7 2 66 104 103 130 70 94 182 185 169 166 140 82 95 64 65 87 69 82 63 27 49 71 56 41 9 -2 -8 -3 -2 -2 -10 -16 -24 -29 -30 -32 -32 -32 -31 -29 -27 -24 -22 -21 -20 -17 -9 -1 -2 -5 -5 -3 -2 -1 0 2 5 10 11 12 11 14 26 16 27 35 49 65 88 90 67 50 52 56 68 80 117 122 112 109 186 237 166 135 168 163 205 173 142 170 162 130 133 116 109 109 99 97 77 57 66 80 94 120 136 128 117 89 75 74 83 76 60 53 51 63 65 70 66 67 72 76 74 95 111 97 75 71 69 94 110 101 98 103 110 117 125 130 148 153 146 131 123 130 135 139 127 144 163 171 180 186 204 211 193 191 179 167 160 151 149 159 150 143 139 148 132 129 136 144 167 162 160 189 174 169 169 175 183 189 180 171 179 190 192 195 196 186 179 180 181 179 175 174 180 187 181 188 191 171 172 185 188 185 75 43 192 198 210 211 216 215 214 224 219 205 202 200 201 189 180 171 175 183 176 184 173 148 156 154 110 98 107 112 115 112 104 99 115 128 122 126 119 113 106 102 106 116 98 131 110 107 121 121 102 117 117 128 127 129 97 101 114 121 122 119 124 137 146 152 152 152 152 145 140 145 168 161 160 165 155 153 155 159 188 192 187 184 175 199 219 230 218 218 222 214 205 191 187 195 202 235 200 174 170 180 157 140 120 102 106 119 106 93 91 77 60 58 88 119 129 104 102 120 122 122 122 122 122 122 117 108 107 122 122 122 123 123 131 132 123 121 79 37 3 0 0 0 0 0 0 0 0 -1 -9 -17 -28 -30 -30 -30 -30 -30 -30 -30 -30 -30 -30 -30 -30 -30 -30 -30 -30 -30 -30 -30 -30 -30 -30 -30 -30 -30 -30 -30 -30 -30 -30 -30 -30 -16 17
-2011 -1894 -2207 -2390 -2586 -2289 -2136 -2187 -2182 -1674 -2062 -2308 -2693 -2732 -2601 -2604 -2709 -2862 -2954 -2993 -2992 -2998 -2969 -2983 -3004 -3000 -2999 -3000 -3001 -3000 -2997 -2996 -2996 -2985 -3074 -3344 -3623 -3693 -3869 -3798 -3623 -3366 -3581 -3582 -3552 -3725 -3849 -3990 -4018 -4064 -4031 -4013 -4082 -4056 -4179 -4268 -4404 -4415 -4408 -4405 -4409 -4419 -4420 -4420 -4416 -4401 -4394 -4228 -4261 -4263 -4336 -4332 -4370 -4404 -4516 -4578 -4473 -4381 -4216 -4198 -4254 -4387 -4460 -4562 -4591 -4598 -4602 -4552 -4405 -4375 -4392 -4436 -4494 -4602 -4762 -4740 -4719 -4703 -4671 -4673 -4694 -4729 -4768 -4789 -4804 -4802 -4783 -4754 -4732 -4685 -4619 -4559 -4509 -4470 -4417 -4317 -4224 -4180 -4125 -3893 -3243 -2684 -2077 -2007 -2060 -2098 -2133 -2330 -2167 -2066 -2056 -1961 -1769 -1731 -1577 -1412 -1202 -1098 -888 -682 -388 -223 -186 -176 -164 -160 -153 -146 -144 -140 -134 -128 -133 -132 -128 -122 -104 -99 -100 -100 -101 -100 -103 -117 -114 -111 -112 -111 -108 -103 -101 -100 -100 -100 -99 -97 -95 -92 -85 -77 -73 -68 -62 -55 -49 -47 -11 -25 -17 -5 112 153 101 78 51 36 -1 1 42 128 157 125 87 67 109 160 165 149 132 112 78 57 58 62 53 46 47 42 55 28 60 46 27 8 1 -3 -2 -3 -6 -13 -20 -29 -29 -30 -32 -31 -31 -30 -27 -25 -21 -20 -19 -18 -6 -1 -3 -2 -1 -1 -1 -1 0 1 3 4 6 6 10 15 24 25 22 27 37 52 68 92 101 78 60 52 59 69 69 83 118 163 162 190 207 225 221 205 204 193 212 173 312 272 223 183 177 161 110 104 92 87 69 53 65 80 89 117 123 99 90 92 102 111 100 69 59 51 67 67 71 74 68 72 77 83 103 101 85 78 78 85 92 95 92 93 99 101 117 122 126 145 139 142 136 127 128 131 145 134 140 176 179 188 200 210 201 192 178 172 170 167 163 167 165 168 161 163 163 164 162 160 175 179 184 195 203 186 180 174 180 197 191 180 170 173 181 188 193 193 182 182 189 185 184 179 182 196 198 193 185 182 184 188 190 200 200 193 204 206 203 200 206 213 219 222 228 224 222 216 211 201 187 169 175 187 173 178 179 161 160 170 164 140 110 123 117 104 105 108 102 122 125 112 122 119 117 113 109 101 92 91 117 104 103 115 116 94 101 106 117 100 115 101 110 118 117 117 106 119 128 138 149 148 148 151 147 152 154 163 158 155 175 162 160 172 176 201 210 206 183 195 225 244 253 242 227 242 236 230 224 218 210 233 228 198 168 171 178 160 152 123 89 78 102 95 91 91 77 55 49 77 123 133 113 98 117 122 122 122 122 122 122 124 109 102 118 123 126 129 127 129 139 128 122 115 68 30 0 0 0 0 0 0 0 0 -3 -11 -25 -30 -30 -30 -30 -30 -30 -30 -30 -30 -30 -30 -30 -30 -30 -30 -30 -30 -30 -30 -30 -30 -30 -30 -30 -30 -30 -30 -30 -30 -30 -30 -30 -30 -30 -17
-2011 -2055 -2643 -2767 -2354 -2178 -2385 -2568 -2573 -2261 -2309 -2553 -2493 -2594 -2598 -2616 -2945 -3003 -2993 -2964 -2881 -2976 -2995 -2997 -3001 -3000 -2999 -3000 -3001 -3000 -2999 -2998 -2996 -3002 -3131 -3588 -3636 -3704 -3776 -3696 -3596 -3342 -3583 -3573 -3651 -3855 -3879 -3969 -4043 -4063 -4020 -4007 -3992 -4013 -4054 -4239 -4363 -4393 -4408 -4417 -4417 -4414 -4413 -4411 -4418 -4406 -4379 -4295 -4392 -4379 -4305 -4324 -4384 -4448 -4559 -4587 -4517 -4382 -4274 -4254 -4323 -4429 -4540 -4592 -4608 -4585 -4562 -4497 -4378 -4326 -4373 -4423 -4425 -4633 -4759 -4738 -4728 -4722 -4712 -4699 -4706 -4739 -4769 -4791 -4801 -4800 -4787 -4764 -4743 -4686 -4632 -4579 -4509 -4494 -4435 -4340 -4266 -4259 -4175 -3885 -3270 -2512 -2117 -1923 -1849 -1899 -1945 -2071 -1865 -1764 -1879 -1662 -1475 -1497 -1343 -1124 -1087 -895 -773 -576 -317 -212 -184 -174 -162 -159 -155 -148 -146 -141 -136 -134 -134 -121 -128 -131 -119 -104 -100 -100 -100 -91 -101 -111 -117 -117 -117 -113 -109 -104 -102 -100 -100 -100 -97 -95 -90 -89 -79 -75 -72 -67 -61 -54 -49 -38 -25 -13 2 43 143 298 325 266 209 105 40 29 54 76 128 124 93 119 131 129 158 162 139 114 74 64 81 71 47 42 43 54 76 56 28 21 6 -2 -7 -8 -2 -3 -11 -16 -25 -29 -29 -30 -31 -30 -30 -27 -23 -23 -20 -19 -16 -10 -2 -1 -2 -2 -1 -1 0 1 1 1 3 5 8 10 15 23 24 23 19 29 41 59 76 74 73 74 65 62 75 96 84 81 94 148 218 241 199 231 184 244 268 210 185 221 472 519 497 361 252 170 131 145 127 80 73 61 66 68 70 81 78 74 79 85 91 101 111 78 69 60 69 70 76 77 81 88 98 112 105 116 105 99 84 80 80 83 97 95 104 96 107 108 126 140 129 132 139 130 133 152 165 146 145 172 177 192 204 222 208 196 173 197 184 189 195 177 167 179 185 179 169 164 158 143 157 191 209 219 199 203 198 188 184 202 212 200 184 178 181 188 195 196 193 198 200 193 191 188 191 203 204 197 188 196 193 196 193 204 215 214 215 206 211 209 212 212 216 221 223 233 229 226 223 208 190 180 180 185 183 188 174 165 178 178 160 154 145 165 165 118 119 144 112 109 116 105 118 115 115 114 113 104 88 90 96 98 107 110 106 95 85 108 115 106 93 107 111 110 99 99 100 118 127 130 142 137 135 144 152 152 152 151 150 152 169 169 158 174 181 192 200 215 189 200 221 243 274 252 208 218 229 238 222 225 190 213 218 205 164 148 159 148 149 139 96 85 91 91 91 91 77 57 49 86 119 138 121 113 117 122 118 117 122 122 126 129 115 98 117 130 139 143 137 135 149 138 128 124 111 74 19 9 2 0 0 0 0 0 0 -8 -25 -30 -24 -27 -30 -30 -30 -30 -30 -30 -30 -30 -30 -30 -30 -30 -30 -30 -30 -30 -30 -30 -30 -30 -30 -30 -30 -30 -30 -30 -30 -30 -30 -30 -30 -23
-2021 -2199 -2607 -2528 -2025 -2178 -2485 -2499 -2420 -2314 -2599 -2572 -2485 -2607 -2611 -2764 -2985 -3020 -2983 -2841 -2697 -2911 -2998 -3002 -3001 -3000 -3000 -3000 -3001 -3001 -2999 -2994 -2985 -3006 -3020 -3589 -3637 -3676 -3727 -3734 -3773 -3807 -3803 -3793 -3617 -3694 -3775 -3843 -3988 -4000 -4005 -4007 -4005 -4115 -4246 -4331 -4288 -4328 -4368 -4405 -4408 -4403 -4403 -4405 -4410 -4404 -4380 -4393 -4399 -4367 -4244 -4359 -4405 -4499 -4588 -4593 -4493 -4384 -4321 -4358 -4406 -4492 -4579 -4605 -4597 -4545 -4448 -4388 -4339 -4246 -4304 -4339 -4315 -4534 -4745 -4703 -4726 -4723 -4726 -4713 -4721 -4754 -4782 -4795 -4799 -4801 -4794 -4778 -4761 -4702 -4647 -4585 -4546 -4520 -4453 -4377 -4358 -4330 -4267 -4111 -3429 -2836 -2525 -2081 -1851 -1730 -1788 -1731 -1571 -1588 -1595 -1421 -1314 -1227 -1085 -961 -864 -782 -667 -507 -367 -237 -180 -170 -160 -160 -156 -151 -148 -142 -138 -137 -135 -119 -128 -133 -124 -112 -106 -102 -100 -97 -98 -107 -116 -117 -118 -114 -109 -106 -102 -100 -100 -99 -95 -91 -87 -84 -76 -73 -70 -65 -59 -56 -43 -27 -10 84 77 113 130 185 237 203 193 77 88 49 52 59 100 141 156 140 122 101 121 123 123 132 118 99 93 67 51 66 89 111 112 75 54 36 1 -2 -1 -7 -2 -2 -8 -18 -25 -29 -29 -29 -30 -30 -29 -24 -20 -20 -19 -19 -9 -3 0 -6 -1 -6 -4 0 1 3 5 5 4 7 12 18 19 23 26 26 20 30 42 54 69 66 63 75 71 73 85 104 93 85 94 122 248 296 212 192 208 312 294 199 193 212 400 551 621 505 398 319 226 196 155 109 80 80 79 79 79 106 106 79 76 79 86 102 113 100 96 92 74 76 89 102 107 123 136 152 113 133 141 138 126 103 81 93 93 96 98 90 95 107 123 127 125 136 161 157 140 154 173 160 160 171 171 189 210 217 203 191 185 202 197 213 241 222 192 198 200 187 172 166 154 146 152 189 212 216 201 219 229 214 193 204 217 233 214 191 190 191 198 205 206 207 207 213 206 195 194 213 219 205 204 216 204 207 204 203 220 229 220 210 223 219 215 210 218 227 222 236 226 217 218 210 192 194 196 194 199 184 175 186 195 185 179 173 164 178 174 161 157 160 117 93 104 96 106 107 107 114 113 107 86 85 93 99 106 108 109 100 86 101 117 99 88 93 96 92 90 95 103 142 142 129 136 141 136 130 143 152 151 147 147 152 160 173 154 156 166 185 196 216 215 221 215 227 245 257 188 179 195 214 159 160 178 210 199 185 166 140 141 138 140 146 97 88 83 88 91 91 84 84 79 91 104 134 135 124 122 122 108 104 125 126 131 140 135 119 142 145 147 152 150 146 150 146 141 132 122 111 70 32 6 0 0 0 0 0 0 -4 -17 -22 -16 -19 -30 -30 -30 -30 -30 -30 -30 -30 -30 -30 -30 -30 -30 -30 -30 -30 -30 -30 -30 -30 -30 -30 -30 -30 -30 -30 -30 -30 -30 -30 -30 -30
-2029 -2474 -2380 -2150 -2014 -2207 -2491 -2532 -2436 -2071 -2625 -2684 -2663 -2621 -2717 -2939 -2999 -3004 -2972 -2765 -2697 -2918 -2998 -3000 -3000 -3000 -3000 -3001 -3001 -3002 -2999 -2980 -2960 -2999 -3019 -3460 -3596 -3689 -3814 -3920 -3974 -3986 -3973 -3982 -3811 -3657 -3675 -3799 -3905 -3865 -3945 -3993 -4030 -4150 -4265 -4261 -4204 -4273 -4326 -4385 -4398 -4399 -4400 -4401 -4405 -4403 -4400 -4398 -4400 -4266 -4227 -4324 -4448 -4555 -4596 -4494 -4450 -4405 -4407 -4430 -4504 -4573 -4600 -4608 -4584 -4446 -4373 -4256 -4234 -4206 -4242 -4250 -4277 -4395 -4594 -4650 -4632 -4667 -4752 -4726 -4737 -4766 -4792 -4803 -4805 -4803 -4801 -4794 -4768 -4720 -4674 -4587 -4576 -4547 -4495 -4449 -4448 -4389 -4377 -4200 -3796 -3442 -2727 -2155 -1857 -1646 -1591 -1485 -1459 -1499 -1433 -1266 -1160 -1043 -919 -855 -668 -598 -490 -417 -299 -202 -174 -164 -159 -161 -156 -151 -148 -144 -140 -138 -135 -135 -135 -134 -130 -124 -117 -111 -99 -94 -91 -99 -107 -110 -117 -113 -109 -105 -101 -100 -100 -97 -92 -86 -83 -79 -72 -70 -65 -61 -56 -51 -32 -11 -4 152 140 128 133 149 174 150 162 112 104 58 54 73 107 129 149 135 120 85 101 83 87 117 160 110 101 64 67 82 99 112 104 111 94 83 75 43 20 -3 -1 -1 -2 -19 -22 -29 -30 -29 -29 -29 -27 -20 -19 -19 -18 -14 -5 -1 1 -10 -3 -2 1 5 5 10 13 10 8 11 14 21 19 21 26 34 24 28 47 52 61 69 62 72 68 75 79 86 89 106 129 176 295 336 207 214 210 253 271 203 226 186 254 392 502 475 464 436 352 287 215 152 118 113 97 90 87 114 125 107 91 84 87 105 104 114 123 117 99 99 108 130 129 137 147 154 123 126 134 143 150 149 121 104 94 103 99 92 93 115 153 122 132 151 205 181 150 157 174 169 168 168 168 183 204 212 204 198 194 195 211 226 258 287 256 222 220 198 195 181 167 153 170 200 216 224 223 240 254 242 218 205 221 254 244 215 208 199 199 207 212 218 217 229 221 208 197 204 228 223 221 208 223 217 222 210 225 229 219 219 226 228 223 217 222 237 232 235 219 214 209 212 213 216 215 215 204 189 183 189 197 187 181 184 181 172 166 161 157 142 131 116 102 85 88 90 87 102 110 109 85 81 95 98 97 99 100 91 83 106 106 93 82 80 78 82 88 104 119 149 125 113 119 143 148 134 137 142 142 136 139 149 146 175 164 152 156 184 202 206 209 228 220 204 197 228 195 175 142 128 147 154 184 166 156 154 133 125 127 127 117 125 103 86 71 75 84 90 91 91 91 91 95 118 132 124 122 122 124 111 125 140 129 145 150 144 153 164 172 163 152 152 152 152 149 136 125 122 101 55 21 2 0 5 0 0 0 0 -4 -5 -5 -6 -22 -30 -30 -30 -30 -30 -30 -30 -30 -30 -30 -30 -30 -30 -30 -30 -30 -30 -30 -30 -30 -30 -30 -30 -30 -30 -30 -30 -30 -30 -30 -30
-2712 -2553 -2241 -2006 -2008 -2151 -2370 -2554 -2617 -2502 -2828 -2838 -2835 -2843 -2941 -2991 -2998 -2965 -2833 -2731 -2724 -2972 -2997 -2998 -2999 -3001 -3000 -3000 -3000 -2999 -2997 -2975 -2951 -2995 -3000 -3220 -3450 -3552 -3552 -3868 -3994 -3974 -3906 -3981 -3916 -3629 -3689 -3878 -3876 -3811 -3955 -3716 -4015 -4067 -4172 -4107 -4132 -4240 -4338 -4389 -4399 -4399 -4400 -4406 -4413 -4414 -4416 -4403 -4364 -4284 -4233 -4338 -4492 -4591 -4600 -4480 -4560 -4421 -4548 -4551 -4588 -4601 -4601 -4596 -4530 -4403 -4327 -4206 -4233 -4259 -4256 -4340 -4319 -4522 -4552 -4571 -4583 -4684 -4698 -4694 -4746 -4768 -4719 -4813 -4815 -4808 -4807 -4804 -4775 -4740 -4689 -4614 -4601 -4577 -4533 -4521 -4507 -4474 -4418 -4117 -4116 -3759 -3035 -2342 -1945 -1672 -1455 -1408 -1373 -1412 -1299 -1177 -1089 -930 -815 -812 -464 -431 -359 -296 -200 -175 -167 -160 -161 -161 -156 -152 -147 -144 -142 -140 -135 -134 -134 -134 -133 -129 -126 -112 -101 -94 -73 -99 -101 -102 -113 -113 -109 -105 -102 -100 -99 -95 -88 -81 -78 -75 -69 -65 -60 -57 -51 -35 -16 -8 97 139 186 227 131 119 96 81 110 179 146 111 87 96 88 75 147 133 83 65 76 74 77 107 156 96 121 78 73 80 89 104 87 74 61 71 93 93 36 2 1 0 -9 -20 -26 -30 -30 -29 -27 -25 -21 -19 -18 -14 -11 -5 -6 -1 1 -3 -8 -7 0 11 11 18 22 18 18 16 17 22 22 23 24 27 25 28 46 55 53 76 81 82 84 113 122 144 181 232 254 305 343 314 212 214 214 239 262 188 241 209 223 273 298 293 339 405 367 320 256 179 156 116 106 98 94 100 100 106 99 92 90 92 103 110 131 121 115 118 123 135 139 137 144 147 136 136 145 155 155 149 153 132 100 101 117 125 111 121 162 163 181 164 194 174 161 170 177 173 173 172 175 198 205 214 214 213 201 207 230 236 264 298 297 258 242 218 211 193 174 150 199 218 221 237 237 245 249 246 230 223 229 243 237 214 199 200 212 210 213 221 226 232 221 215 205 199 217 234 225 219 243 226 224 222 228 226 224 229 230 239 237 226 227 241 241 227 221 223 219 222 225 223 228 224 205 203 202 197 190 186 181 172 180 167 161 147 133 136 138 113 90 84 84 84 87 83 100 97 95 78 80 92 97 96 92 81 77 107 101 101 76 76 72 77 93 108 122 124 90 76 99 131 140 138 148 126 132 132 130 146 134 152 166 152 156 189 209 206 203 212 215 210 185 199 165 178 145 106 159 131 126 105 126 110 79 98 110 110 95 96 92 80 66 63 74 89 91 91 91 95 103 113 123 122 127 122 132 130 124 141 133 135 150 124 142 161 183 164 143 150 152 152 152 135 123 117 100 56 21 12 12 12 0 4 9 3 0 0 0 -1 -17 -30 -30 -30 -30 -30 -30 -30 -30 -30 -30 -30 -30 -30 -30 -30 -30 -30 -30 -30 -30 -30 -30 -30 -30 -30 -30 -30 -30 -30 -30 -30
-2607 -2079 -2032 -1978 -2003 -2207 -2411 -2567 -2611 -2874 -3037 -3021 -2967 -2968 -3000 -3002 -2998 -2941 -2633 -2628 -2737 -2991 -2995 -2993 -2998 -3002 -3000 -3000 -2999 -2989 -2969 -2962 -2964 -3000 -3012 -3202 -3290 -3227 -3528 -3649 -3833 -3928 -3869 -3975 -3844 -3654 -3783 -3913 -3973 -3884 -3876 -3792 -3525 -3822 -4030 -4014 -4132 -4273 -4345 -4385 -4397 -4399 -4404 -4415 -4424 -4438 -4462 -4409 -4392 -4376 -4318 -4390 -4468 -4562 -4581 -4564 -4575 -4531 -4572 -4594 -4601 -4600 -4598 -4595 -4528 -4399 -4389 -4351 -4345 -4361 -4377 -4461 -4538 -4561 -4590 -4579 -4640 -4584 -4414 -4629 -4779 -4748 -4686 -4763 -4799 -4817 -4814 -4806 -4793 -4767 -4714 -4636 -4629 -4617 -4595 -4580 -4528 -4494 -4245 -4018 -3950 -3769 -3207 -2438 -1979 -1657 -1345 -1332 -1306 -1295 -1174 -1089 -1039 -874 -824 -618 -564 -394 -309 -216 -177 -165 -162 -159 -162 -160 -156 -150 -147 -145 -144 -140 -136 -135 -135 -134 -133 -132 -130 -121 -107 -98 -91 -100 -100 -108 -113 -111 -108 -105 -101 -100 -97 -90 -80 -76 -75 -67 -62 -59 -56 -49 -26 37 198 217 115 116 261 346 210 159 78 78 95 155 111 109 125 127 101 124 84 41 58 70 56 49 58 85 119 93 112 56 51 71 91 36 57 94 75 60 52 62 35 2 2 -1 -2 -24 -29 -30 -29 -27 -22 -20 -16 -14 -11 -5 -1 1 1 -7 -5 -9 -8 5 18 21 20 26 33 29 24 19 18 24 29 26 25 25 49 26 38 70 82 98 124 108 160 166 190 225 294 345 355 403 329 306 214 208 218 248 271 215 303 217 224 257 246 240 298 394 238 179 208 197 119 104 102 113 113 123 110 132 125 131 102 89 99 98 102 109 125 119 122 127 141 154 152 162 160 164 168 166 152 151 160 124 104 119 131 144 168 183 178 174 191 183 188 180 176 180 185 190 182 188 198 219 220 224 225 245 208 229 245 266 292 304 304 296 250 266 209 193 178 171 173 203 243 245 267 258 241 225 208 212 236 240 215 199 199 196 197 208 210 220 230 236 229 225 209 202 215 209 216 218 240 262 243 218 221 222 223 241 245 250 244 231 230 245 246 231 235 240 237 236 236 228 227 223 225 210 211 202 182 172 167 157 158 161 160 166 156 152 152 116 97 116 111 107 92 82 79 78 78 75 74 77 89 85 79 77 76 83 97 108 89 71 70 76 95 101 103 104 77 77 88 104 120 124 138 128 123 123 123 139 146 150 154 152 152 162 187 205 212 203 211 199 135 163 132 108 113 90 125 89 116 109 119 99 75 83 93 93 91 91 88 72 61 65 74 88 91 91 97 100 120 121 122 127 147 135 135 121 118 137 142 117 111 82 97 119 151 136 118 125 136 151 152 133 110 117 92 51 32 23 28 27 11 5 15 6 0 0 0 0 -4 -20 -30 -30 -30 -30 -30 -30 -30 -30 -30 -30 -30 -30 -30 -30 -30 -30 -30 -30 -30 -30 -30 -30 -30 -30 -30 -30 -30 -30 -30 -30
-2053 -2009 -1988 -1940 -2016 -2143 -2430 -2603 -2671 -2883 -3054 -3036 -3005 -3002 -3003 -3001 -2982 -2979 -2610 -2618 -2806 -2993 -2999 -2999 -2999 -3000 -3000 -2999 -2996 -2982 -2971 -2988 -3078 -3331 -3019 -3334 -3168 -3346 -3598 -3614 -3809 -3950 -3944 -3940 -3968 -3935 -3883 -3912 -3955 -3925 -3973 -3813 -4134 -4127 -4069 -4016 -4075 -4239 -4366 -4399 -4397 -4399 -4404 -4425 -4443 -4457 -4487 -4575 -4584 -4559 -4402 -4408 -4489 -4582 -4589 -4592 -4594 -4584 -4591 -4598 -4603 -4603 -4599 -4593 -4485 -4402 -4408 -4429 -4499 -4536 -4555 -4589 -4584 -4655 -4616 -4670 -4625 -4572 -4696 -4789 -4781 -4752 -4687 -4802 -4814 -4820 -4819 -4809 -4804 -4806 -4756 -4679 -4667 -4650 -4615 -4602 -4564 -4457 -4390 -3863 -3801 -3380 -3053 -2441 -1969 -1522 -1303 -1308 -1252 -1211 -1028 -979 -967 -845 -809 -651 -476 -403 -239 -194 -160 -156 -157 -159 -165 -160 -155 -150 -147 -146 -143 -140 -137 -137 -136 -135 -134 -134 -134 -129 -128 -100 -100 -102 -112 -116 -111 -108 -106 -102 -100 -98 -92 -83 -75 -73 -64 -58 -53 -48 -49 -28 73 111 210 259 136 125 227 444 289 153 51 38 86 77 27 25 74 133 132 91 80 54 43 61 41 11 23 37 46 104 76 66 49 36 43 15 93 98 77 55 50 44 21 3 1 -12 -22 -28 -28 -27 -27 -24 -19 -15 -7 -4 1 8 9 9 4 2 2 1 2 5 12 18 21 22 25 39 34 21 25 27 30 23 27 48 45 37 62 102 143 178 174 164 287 318 306 311 370 430 431 457 329 306 221 238 230 251 311 247 261 286 297 382 288 227 202 219 191 160 202 215 164 114 101 107 118 126 138 139 147 139 112 96 112 121 121 133 143 134 129 130 142 165 170 196 193 198 194 198 185 153 137 122 105 118 114 116 122 136 140 147 178 171 182 197 188 189 203 222 182 211 218 217 211 221 230 237 214 221 246 261 280 317 342 326 284 282 258 225 184 175 166 188 202 230 255 297 290 272 241 236 223 222 234 215 214 216 206 198 211 225 231 227 214 216 205 206 250 241 221 286 270 269 238 212 203 231 227 237 250 272 257 244 247 268 259 243 256 259 245 254 250 247 235 231 215 223 218 202 187 188 183 180 191 173 159 169 164 154 142 126 95 87 114 108 101 102 99 86 86 76 75 78 77 75 76 74 71 70 82 95 70 70 65 60 91 100 100 90 81 81 91 110 122 122 122 122 122 124 133 145 152 152 159 160 152 156 174 190 193 174 175 170 188 118 109 99 113 99 88 113 100 70 80 97 71 41 76 91 91 91 91 89 77 64 72 88 106 107 103 96 107 106 107 118 148 121 104 91 91 87 97 95 78 62 78 110 117 93 84 101 94 146 137 133 106 118 118 76 38 30 30 30 24 5 22 22 5 0 0 0 -2 -19 -30 -30 -30 -30 -30 -30 -30 -30 -30 -30 -30 -30 -30 -30 -30 -30 -30 -30 -30 -30 -30 -30 -30 -30 -30 -30 -30 -30 -30 -30
-2015 -2073 -2006 -2058 -2138 -2269 -2530 -2615 -2866 -2993 -3007 -3052 -3028 -3022 -3022 -3006 -2986 -2863 -2633 -2718 -2990 -2983 -2986 -2998 -2999 -3002 -3002 -3001 -2993 -2980 -2988 -2999 -3241 -3368 -3334 -3371 -3325 -3396 -3595 -3600 -3703 -3766 -3934 -4000 -3953 -3942 -3861 -3809 -3930 -3985 -3996 -4050 -4367 -4301 -4394 -4295 -4250 -4371 -4387 -4389 -4400 -4400 -4405 -4448 -4526 -4604 -4601 -4590 -4600 -4585 -4589 -4576 -4561 -4584 -4597 -4603 -4591 -4591 -4597 -4605 -4604 -4596 -4588 -4590 -4447 -4403 -4410 -4480 -4589 -4593 -4613 -4615 -4692 -4734 -4700 -4744 -4693 -4672 -4756 -4795 -4798 -4800 -4759 -4790 -4818 -4822 -4821 -4819 -4818 -4810 -4756 -4705 -4686 -4658 -4643 -4629 -4585 -4548 -4290 -3903 -3684 -3486 -3018 -2514 -2042 -1554 -1358 -1277 -1208 -1085 -992 -991 -933 -811 -782 -594 -391 -257 -224 -167 -133 -153 -162 -165 -165 -160 -157 -149 -147 -146 -144 -139 -138 -139 -139 -136 -136 -137 -135 -134 -130 -128 -118 -115 -118 -114 -110 -108 -105 -102 -100 -96 -89 -81 -74 -65 -53 -48 -44 -30 -30 -9 80 103 114 119 93 54 174 368 222 77 11 -8 -4 -3 -6 -12 -7 49 73 49 51 8 8 41 23 3 -3 -7 -10 61 67 54 69 52 83 34 3 3 2 2 1 0 0 -1 -5 -14 -29 -27 -24 -18 -19 -18 -10 -6 -1 5 16 19 16 15 8 4 4 4 8 10 11 11 11 16 24 35 37 32 31 30 30 41 58 74 46 47 51 125 182 230 313 298 314 356 375 414 405 436 452 468 391 328 257 295 282 262 266 259 310 337 386 363 386 348 288 238 161 143 244 213 167 123 115 121 123 141 148 158 175 165 132 115 124 137 167 167 204 168 157 151 167 175 209 197 245 214 234 243 216 195 150 127 123 125 141 130 122 120 126 129 154 164 175 189 182 206 206 214 231 228 211 215 236 228 228 231 216 232 250 263 261 278 289 327 352 291 325 263 222 201 164 152 170 191 215 248 262 271 268 274 286 270 246 224 228 228 222 213 219 234 239 221 218 216 214 229 253 221 209 244 270 258 235 240 238 244 259 274 276 275 261 256 249 252 265 265 263 266 266 263 262 259 254 240 222 239 225 209 192 200 201 185 216 191 193 199 168 148 150 162 154 134 127 94 126 149 121 112 107 92 90 137 131 95 109 135 93 119 90 79 69 65 62 60 60 91 77 61 65 94 124 141 132 122 122 122 122 123 129 136 135 147 163 180 153 159 172 189 204 181 146 146 154 171 144 121 89 45 61 82 96 91 85 72 78 89 90 91 91 91 91 91 91 83 95 108 121 122 119 104 95 91 90 99 116 122 103 86 71 56 54 60 57 59 59 60 68 67 52 56 83 109 122 116 79 72 120 99 60 37 30 30 29 22 23 23 7 0 0 0 0 -4 -20 -30 -30 -30 -30 -30 -30 -30 -30 -30 -30 -30 -30 -30 -30 -30 -30 -30 -30 -30 -30 -30 -30 -30 -30 -30 -30 -30 -30 -30
-2137 -2441 -2040 -2186 -2168 -2148 -2478 -2763 -2965 -2996 -3002 -3018 -3019 -3023 -3028 -3003 -2988 -2864 -2732 -2872 -2967 -2857 -2908 -2999 -3000 -3002 -3000 -2998 -2993 -2992 -2998 -3003 -3037 -3304 -3082 -3342 -3242 -3218 -3590 -3569 -3438 -3532 -3917 -3982 -3965 -3950 -3789 -3802 -3978 -4030 -4011 -4381 -4432 -4557 -4548 -4549 -4515 -4460 -4450 -4408 -4401 -4399 -4399 -4475 -4629 -4636 -4548 -4566 -4580 -4593 -4599 -4604 -4593 -4592 -4594 -4600 -4599 -4600 -4600 -4600 -4591 -4565 -4507 -4567 -4419 -4403 -4405 -4445 -4576 -4619 -4725 -4761 -4781 -4783 -4767 -4783 -4779 -4765 -4737 -4766 -4800 -4809 -4808 -4814 -4819 -4820 -4822 -4823 -4815 -4811 -4768 -4731 -4701 -4658 -4621 -4610 -4570 -4478 -4296 -3878 -3865 -3675 -3087 -2490 -1972 -1719 -1482 -1398 -1224 -1040 -954 -1000 -868 -786 -611 -496 -281 -244 -202 -154 -136 -155 -167 -170 -166 -161 -156 -149 -148 -147 -142 -139 -140 -141 -141 -139 -139 -140 -136 -132 -130 -129 -122 -120 -117 -114 -111 -108 -105 -101 -99 -93 -84 -77 -71 -55 -47 -33 -16 -14 -8 24 40 48 70 50 26 26 121 228 110 32 -10 -6 -11 -20 -24 -31 -15 10 28 21 48 -1 -3 -4 0 2 4 -2 -7 15 5 3 3 1 51 26 1 1 1 0 -4 -5 -3 -11 -17 -24 -29 -17 0 1 -9 -6 1 2 7 14 22 22 21 14 8 5 4 7 14 10 12 10 12 15 26 36 55 48 38 32 33 53 57 73 42 43 50 99 185 264 351 360 417 386 378 419 435 512 599 518 378 337 326 328 314 266 368 312 306 341 411 350 318 273 269 233 163 220 187 210 185 131 132 145 140 143 159 172 203 202 180 164 153 169 182 211 283 262 217 206 211 227 222 219 265 267 291 277 265 262 200 172 162 152 149 145 136 129 128 129 151 152 170 171 179 202 220 243 234 241 241 232 247 240 231 229 223 241 246 261 252 258 260 294 318 330 280 244 200 190 159 152 163 178 193 201 217 221 234 273 295 288 272 241 228 229 228 215 207 216 237 228 217 212 210 219 231 232 231 282 298 265 266 280 268 260 271 280 280 277 274 266 254 245 271 275 272 283 285 278 278 273 258 244 234 231 231 222 201 197 202 201 208 218 216 202 185 176 163 189 144 161 144 140 148 171 169 166 163 132 123 139 134 131 134 137 138 133 137 92 90 105 72 75 79 62 79 77 67 99 134 149 141 124 122 122 122 127 139 130 123 131 137 157 149 141 159 178 204 196 154 126 144 148 119 117 102 67 66 79 65 74 84 75 70 64 57 73 91 91 91 91 91 91 113 122 122 122 120 105 93 91 81 73 86 116 100 70 58 48 52 60 41 46 41 42 49 56 52 59 70 86 116 115 94 49 76 115 96 63 31 30 30 30 30 30 20 3 0 0 -1 -4 -14 -30 -30 -30 -30 -30 -30 -30 -30 -30 -28 -28 -30 -30 -30 -30 -30 -30 -30 -30 -30 -30 -30 -30 -30 -30 -30 -30 -30 -30
-2542 -2198 -2131 -2579 -2347 -2146 -2477 -2790 -2969 -3000 -3000 -3011 -3005 -3008 -3011 -2998 -2992 -2883 -2768 -2898 -2848 -2721 -2928 -2999 -3000 -3001 -3001 -2999 -2998 -2998 -3000 -3011 -3109 -3263 -3292 -3366 -3175 -3345 -3584 -3526 -3395 -3470 -3756 -3864 -3991 -3909 -3676 -3781 -3973 -4121 -4152 -4405 -4496 -4549 -4582 -4600 -4590 -4533 -4577 -4477 -4403 -4414 -4388 -4427 -4557 -4532 -4396 -4456 -4538 -4598 -4601 -4605 -4601 -4599 -4600 -4602 -4604 -4602 -4600 -4598 -4596 -4521 -4471 -4514 -4431 -4403 -4397 -4406 -4457 -4535 -4696 -4792 -4798 -4786 -4790 -4811 -4795 -4780 -4639 -4573 -4753 -4812 -4813 -4816 -4821 -4822 -4823 -4827 -4824 -4812 -4792 -4742 -4708 -4652 -4584 -4553 -4500 -4441 -4068 -3996 -4016 -3839 -3184 -2425 -1950 -1779 -1645 -1332 -1245 -1044 -1006 -1015 -1030 -916 -638 -461 -349 -211 -188 -148 -136 -154 -169 -174 -165 -162 -152 -150 -150 -147 -141 -139 -140 -141 -141 -140 -140 -140 -136 -131 -129 -129 -127 -122 -118 -115 -111 -107 -103 -99 -97 -89 -76 -69 -70 -58 -43 -14 1 0 0 2 -18 -28 -36 -33 -32 -21 51 86 90 20 -18 -14 -29 -40 -42 -45 -38 -25 -21 -23 -20 -12 -7 -14 -10 22 12 -10 -5 -6 -15 -15 -19 -19 -7 -3 0 -6 -7 -11 -21 -21 -17 -26 -28 -29 -29 29 62 40 27 18 14 15 15 27 31 23 20 15 12 14 10 12 17 13 13 15 23 28 34 36 64 68 55 32 41 61 77 80 77 63 52 82 158 234 305 350 441 431 376 417 512 610 577 428 355 365 313 281 262 334 390 380 284 286 382 318 222 241 204 164 167 204 242 233 189 174 159 150 151 148 180 205 237 248 241 241 228 198 180 241 288 324 336 330 304 290 241 247 329 355 390 365 349 368 319 225 213 183 167 156 155 145 141 138 146 149 159 170 178 202 233 246 241 262 267 260 279 285 259 242 239 258 257 253 241 244 261 269 265 267 237 221 188 161 156 157 167 175 182 189 200 204 207 236 278 295 283 244 223 209 204 201 206 215 236 227 217 215 219 223 234 247 276 308 293 270 271 266 265 262 286 283 281 283 292 280 264 261 285 286 283 285 288 289 294 290 280 263 244 233 222 218 208 212 219 211 197 209 205 208 206 209 202 186 183 176 163 147 151 161 157 174 185 169 165 158 145 145 158 161 153 137 139 124 130 152 121 128 140 95 140 133 82 90 118 138 142 130 125 122 122 127 141 136 132 123 131 136 140 151 165 182 192 178 137 131 118 130 109 98 91 75 49 62 53 58 61 40 54 33 11 25 90 91 91 91 91 94 114 122 122 122 122 117 100 93 84 65 70 85 111 72 68 59 62 66 66 52 36 42 56 68 59 67 67 75 86 114 95 60 50 98 101 61 36 30 30 30 30 28 19 3 0 -5 -7 -17 -24 -30 -30 -30 -30 -30 -30 -30 -30 -30 -21 -18 -28 -30 -30 -30 -30 -30 -30 -30 -30 -30 -30 -30 -30 -30 -30 -30 -30 -30
-2576 -2303 -2356 -2593 -2411 -2400 -2598 -2734 -2889 -2999 -2997 -3007 -3003 -3002 -3000 -2999 -2997 -2949 -2959 -2938 -2846 -2841 -2999 -3001 -3000 -3000 -3000 -2999 -2999 -2999 -3001 -3027 -3109 -3249 -3370 -3394 -3474 -3566 -3570 -3575 -3541 -3600 -3616 -3643 -3990 -3969 -3872 -3906 -4059 -4192 -4370 -4417 -4456 -4492 -4596 -4614 -4596 -4591 -4588 -4588 -4429 -4375 -4252 -4222 -4273 -4220 -4177 -4379 -4526 -4599 -4600 -4599 -4601 -4600 -4600 -4602 -4603 -4602 -4601 -4596 -4585 -4564 -4578 -4515 -4518 -4398 -4387 -4384 -4395 -4454 -4686 -4796 -4805 -4799 -4803 -4818 -4800 -4759 -4606 -4502 -4735 -4805 -4796 -4806 -4820 -4820 -4823 -4829 -4828 -4809 -4791 -4749 -4695 -4633 -4553 -4489 -4452 -4391 -4183 -4110 -4062 -3851 -3293 -2507 -2062 -1965 -1816 -1461 -1315 -1214 -1053 -1060 -1220 -1104 -783 -570 -432 -207 -168 -128 -138 -151 -171 -177 -167 -163 -152 -151 -153 -152 -142 -139 -141 -142 -140 -139 -140 -140 -136 -133 -132 -131 -127 -122 -119 -116 -111 -107 -101 -99 -95 -82 -49 -55 -74 -60 -50 -25 0 1 -5 -31 -46 -38 -43 -47 -47 -44 -14 15 6 -33 -30 -35 -48 -52 -54 -53 -47 -43 -40 -42 -40 -30 -24 -27 -24 -19 -21 -17 -18 -24 -31 -36 -38 -34 -32 -33 -25 -31 -29 -31 -32 -29 -30 -30 -31 -30 -28 78 112 58 30 31 33 37 34 31 32 24 20 28 31 37 35 30 37 36 34 34 44 50 39 35 53 76 74 66 71 74 85 92 86 82 59 57 119 186 243 312 369 414 412 449 538 546 482 389 343 395 332 240 234 292 329 322 347 325 300 316 261 250 206 171 210 234 218 216 209 237 220 183 169 159 216 252 274 292 310 316 323 291 202 212 255 322 397 404 388 335 281 277 453 629 561 432 392 456 460 319 273 220 211 204 172 163 154 156 153 145 150 163 176 193 223 251 246 269 278 276 296 334 294 277 260 267 266 254 245 226 244 248 239 238 218 183 169 162 164 174 178 175 173 187 198 211 213 211 238 284 296 260 228 215 212 207 207 213 222 222 217 220 233 248 270 273 292 317 293 277 273 268 273 283 299 297 297 294 294 289 283 285 293 282 272 270 283 280 294 289 285 279 256 243 236 225 215 224 231 227 218 216 224 216 204 193 194 191 189 173 166 172 159 169 165 164 180 192 166 152 139 133 152 154 162 165 145 143 157 156 150 150 135 130 130 139 124 100 102 124 146 145 134 122 123 124 121 126 139 129 128 144 161 167 180 197 204 185 163 130 127 120 84 89 85 78 47 57 38 18 18 9 19 18 29 41 78 91 91 91 91 100 118 122 122 122 122 120 107 101 102 82 72 68 98 89 79 70 77 83 83 79 68 78 98 102 81 93 93 97 69 98 94 78 43 73 107 74 49 30 30 30 30 28 18 6 0 -12 -22 -24 -30 -30 -30 -30 -30 -30 -30 -30 -30 -30 -21 -15 -25 -30 -30 -30 -30 -30 -30 -30 -30 -30 -30 -30 -30 -30 -30 -30 -30 -30
-2582 -2520 -2593 -2590 -2538 -2522 -2601 -2676 -2895 -2846 -2993 -2997 -3001 -3006 -3006 -3006 -3001 -2999 -2982 -2958 -2944 -2957 -2997 -3000 -2999 -2998 -3000 -2999 -2999 -2998 -2999 -3015 -3063 -3091 -3358 -3422 -3558 -3565 -3554 -3553 -3565 -3596 -3601 -3644 -3989 -3989 -3990 -3997 -4065 -4216 -4350 -4386 -4418 -4540 -4602 -4608 -4605 -4594 -4582 -4559 -4523 -4332 -4069 -4045 -4170 -4247 -4251 -4194 -4562 -4597 -4602 -4604 -4603 -4600 -4600 -4601 -4600 -4601 -4602 -4596 -4578 -4571 -4592 -4591 -4583 -4394 -4373 -4304 -4395 -4503 -4723 -4801 -4802 -4803 -4805 -4824 -4805 -4754 -4735 -4731 -4756 -4755 -4758 -4808 -4818 -4818 -4819 -4823 -4829 -4811 -4798 -4759 -4691 -4632 -4551 -4474 -4419 -4340 -4202 -4166 -4138 -3964 -3498 -2670 -2328 -2156 -1849 -1543 -1512 -1385 -1179 -1347 -1538 -1322 -989 -680 -399 -205 -162 -131 -138 -154 -175 -176 -169 -158 -151 -152 -157 -154 -143 -140 -142 -142 -140 -139 -140 -139 -136 -135 -134 -130 -127 -124 -121 -117 -113 -106 -100 -99 -94 -59 -32 -62 -74 -67 -63 -55 -28 -14 -24 -37 -42 -40 -42 -48 -51 -48 -43 -36 -43 -48 -48 -53 -54 -61 -63 -64 -58 -56 -54 -51 -54 -41 -43 -41 -36 -35 -35 -32 -34 -43 -46 -51 -49 -46 -46 -48 -48 -47 -45 -44 -39 -31 -30 -30 -31 -29 24 102 115 101 46 40 38 35 34 23 23 30 28 43 50 45 40 44 51 80 69 50 50 50 42 46 48 68 83 100 118 130 118 103 100 88 84 58 95 150 219 269 364 386 413 479 541 487 395 318 321 335 329 266 337 360 300 300 296 276 304 299 315 306 263 237 289 301 261 259 253 277 251 241 214 197 233 258 298 338 385 408 422 410 334 292 308 306 340 416 451 333 285 389 518 866 877 735 547 545 511 473 387 281 256 245 193 206 186 170 167 154 156 158 172 181 205 233 244 263 288 298 301 319 318 322 282 280 281 264 247 227 224 243 251 205 192 168 163 169 188 191 189 202 185 189 197 219 229 225 225 259 292 283 261 225 221 216 219 223 222 224 226 242 290 308 332 314 324 326 307 281 281 291 285 298 304 298 291 287 296 304 301 299 292 279 277 269 270 276 280 278 286 292 275 262 240 226 229 232 238 228 217 207 221 224 207 174 175 187 187 189 187 183 179 188 184 193 186 192 182 157 148 134 134 144 161 165 165 143 139 147 148 148 136 121 120 130 133 106 101 116 137 147 137 126 124 122 106 118 139 148 153 132 159 162 183 215 227 214 197 109 135 114 70 83 75 66 47 20 9 -1 -3 -1 8 20 40 54 49 91 91 91 91 98 109 113 121 122 122 122 115 101 111 105 106 94 91 91 90 87 89 98 101 112 110 105 116 133 118 124 122 122 103 94 106 81 48 45 109 99 76 46 30 30 30 30 23 14 9 -4 -22 -30 -30 -30 -30 -30 -30 -30 -30 -30 -30 -30 -26 -24 -27 -30 -30 -30 -30 -30 -30 -30 -30 -30 -30 -30 -30 -30 -30 -30 -30 -30
-2574 -2591 -2592 -2593 -2588 -2574 -2594 -2617 -2712 -2704 -2895 -2900 -2974 -2972 -3007 -3005 -3003 -3000 -2993 -2990 -2989 -2997 -3001 -2997 -2996 -2994 -2999 -2999 -2999 -2998 -2998 -3000 -3009 -3019 -3377 -3422 -3586 -3591 -3571 -3562 -3581 -3601 -3625 -3642 -3986 -3968 -3943 -3980 -4052 -4179 -4267 -4396 -4426 -4595 -4603 -4609 -4603 -4586 -4551 -4515 -4558 -4243 -4015 -4129 -4413 -4493 -4457 -4204 -4547 -4599 -4610 -4612 -4607 -4603 -4600 -4596 -4595 -4592 -4599 -4598 -4592 -4593 -4597 -4591 -4462 -4388 -4267 -4324 -4448 -4575 -4726 -4794 -4792 -4789 -4806 -4830 -4808 -4733 -4667 -4635 -4676 -4690 -4733 -4805 -4813 -4807 -4811 -4817 -4827 -4815 -4802 -4769 -4697 -4658 -4589 -4508 -4423 -4334 -4193 -4204 -4173 -4058 -3857 -3244 -2787 -2209 -1847 -1695 -1612 -1586 -1502 -1723 -1807 -1778 -1117 -719 -395 -206 -177 -135 -140 -157 -180 -175 -171 -154 -151 -153 -158 -154 -144 -141 -143 -142 -140 -139 -140 -139 -138 -137 -136 -130 -128 -125 -122 -119 -114 -107 -100 -98 -96 -79 -68 -86 -82 -80 -73 -60 -47 -41 -42 -41 -42 -43 -47 -51 -52 -48 -47 -51 -54 -50 -53 -59 -62 -68 -70 -69 -67 -65 -63 -60 -58 -55 -53 -49 -47 -47 -44 -45 -47 -50 -51 -51 -51 -49 -50 -50 -49 -48 -49 -47 -42 -34 -30 -30 -30 -28 43 96 149 133 76 39 21 18 24 24 29 30 28 41 50 49 45 50 57 100 93 84 75 55 63 68 70 90 95 116 160 174 183 134 133 111 98 66 88 136 202 264 316 336 370 410 482 435 353 276 268 281 279 290 391 381 317 352 283 279 380 470 415 381 296 292 357 335 336 299 273 303 266 273 261 246 266 299 319 358 427 486 508 572 597 522 440 371 321 407 467 374 385 419 619 773 804 990 938 642 537 601 603 509 373 282 247 234 221 196 180 187 173 163 172 181 208 230 244 254 285 302 318 316 335 379 357 306 317 286 272 249 210 207 221 195 172 166 181 197 211 210 214 217 221 210 182 203 226 222 216 236 258 294 296 282 267 244 238 245 236 237 240 272 325 349 353 348 341 347 322 302 300 313 306 309 307 306 312 314 314 317 315 300 286 295 286 279 260 259 261 268 281 279 291 262 243 238 237 236 225 215 213 210 202 205 202 170 165 182 196 193 194 176 180 197 180 176 178 193 169 159 145 139 127 137 153 145 166 135 117 133 132 135 129 133 134 122 138 117 94 111 133 148 127 124 124 131 117 112 126 136 155 134 156 163 180 204 223 193 168 117 117 96 67 69 56 41 37 0 -3 -1 -4 6 27 28 29 37 38 91 91 91 91 92 95 105 121 122 122 122 120 109 114 118 122 106 91 91 91 97 102 113 118 132 127 115 124 137 135 143 146 144 153 107 134 120 72 38 84 134 92 57 30 30 30 30 29 26 26 -1 -17 -30 -30 -30 -30 -30 -30 -30 -30 -30 -30 -30 -30 -30 -30 -30 -30 -30 -30 -30 -30 -30 -30 -30 -30 -30 -30 -30 -30 -30 -30 -30
-2451 -2441 -2596 -2596 -2592 -2591 -2609 -2638 -2646 -2712 -2723 -2625 -2702 -2990 -3001 -3002 -3001 -3003 -2995 -2994 -2996 -3001 -3000 -2996 -2996 -2997 -3000 -2999 -2999 -2999 -2998 -2997 -2985 -2975 -3083 -3415 -3579 -3540 -3541 -3587 -3592 -3606 -3767 -3931 -3987 -3949 -3883 -3940 -3987 -4125 -4210 -4396 -4425 -4595 -4601 -4602 -4601 -4593 -4553 -4486 -4569 -4442 -4140 -4284 -4509 -4571 -4568 -4326 -4588 -4596 -4609 -4604 -4604 -4603 -4598 -4590 -4586 -4527 -4455 -4511 -4569 -4601 -4594 -4585 -4413 -4239 -4214 -4307 -4564 -4659 -4748 -4788 -4784 -4749 -4800 -4824 -4823 -4761 -4649 -4587 -4615 -4647 -4706 -4804 -4808 -4794 -4801 -4804 -4817 -4813 -4806 -4790 -4750 -4649 -4606 -4509 -4421 -4312 -4190 -4218 -4133 -4022 -3962 -3425 -2769 -2171 -1924 -1920 -1776 -1691 -1839 -2089 -2016 -1948 -1162 -964 -596 -415 -228 -138 -142 -164 -184 -177 -169 -152 -149 -153 -159 -156 -148 -144 -145 -143 -140 -139 -140 -139 -139 -139 -136 -132 -129 -127 -122 -119 -116 -111 -104 -100 -98 -97 -94 -96 -92 -85 -82 -70 -61 -60 -59 -53 -48 -53 -55 -58 -52 -50 -49 -52 -58 -59 -62 -66 -71 -74 -77 -74 -73 -71 -69 -69 -64 -62 -60 -57 -59 -60 -53 -50 -54 -55 -53 -50 -50 -50 -51 -51 -50 -51 -49 -41 -39 -35 -32 -31 -29 -12 27 109 132 133 119 73 31 20 25 25 38 32 37 46 51 53 54 71 97 125 107 110 97 93 102 104 107 142 155 206 240 272 330 239 209 148 139 107 70 111 178 207 234 289 355 419 431 455 355 265 223 230 309 313 339 308 331 364 359 343 316 453 524 487 411 375 392 416 335 282 320 336 308 305 318 281 319 351 359 400 455 563 610 734 763 543 372 380 380 324 324 354 381 470 516 588 624 617 669 645 583 533 544 599 494 331 284 239 252 227 183 198 186 176 179 197 214 237 255 272 295 301 313 321 332 368 380 368 346 287 277 239 217 195 184 179 169 176 197 205 220 234 232 222 211 202 187 182 195 202 219 244 251 265 286 331 305 269 246 252 256 234 245 281 336 371 352 348 360 356 343 340 324 312 318 317 314 307 314 316 310 300 303 297 294 303 282 285 271 255 261 263 272 269 261 265 247 247 246 233 238 231 236 224 206 190 189 183 163 178 162 170 171 169 194 186 187 158 159 195 146 166 154 145 138 123 129 133 134 133 130 141 129 133 137 154 123 125 153 113 78 102 120 137 128 122 122 128 128 123 127 140 150 146 174 176 164 174 183 141 132 109 90 90 62 59 30 6 4 -1 -2 -2 7 36 44 56 59 36 49 63 91 91 91 91 91 93 108 122 122 122 122 121 121 122 122 119 104 109 104 112 120 130 135 137 135 125 140 132 131 147 162 165 180 144 138 127 95 66 54 83 54 83 50 30 30 30 30 30 30 12 -5 -21 -30 -30 -30 -30 -30 -30 -30 -30 -30 -30 -30 -30 -30 -30 -30 -30 -30 -30 -30 -30 -30 -30 -30 -30 -30 -30 -30 -30 -30 -30
-2136 -2097 -2600 -2603 -2581 -2563 -2592 -2656 -2678 -2737 -2711 -2710 -2866 -3002 -3007 -3003 -2983 -2960 -2988 -2994 -2987 -2979 -2989 -2935 -2977 -2998 -2997 -2995 -3000 -3002 -2997 -2996 -3037 -3021 -3024 -3409 -3545 -3475 -3593 -3594 -3601 -3613 -3834 -3988 -3981 -3963 -3913 -3879 -3990 -4062 -4165 -4393 -4494 -4595 -4600 -4601 -4608 -4583 -4543 -4494 -4424 -4352 -4271 -4567 -4583 -4565 -4590 -4572 -4608 -4594 -4602 -4602 -4601 -4600 -4599 -4542 -4592 -4421 -4462 -4476 -4494 -4593 -4589 -4440 -4236 -4218 -4392 -4423 -4659 -4778 -4779 -4793 -4794 -4678 -4799 -4803 -4786 -4719 -4648 -4604 -4565 -4613 -4766 -4800 -4806 -4765 -4772 -4801 -4811 -4801 -4797 -4784 -4690 -4627 -4547 -4486 -4413 -4371 -4365 -4225 -4156 -4019 -3914 -3381 -2975 -2392 -2053 -1974 -1880 -1804 -1999 -2280 -2704 -2404 -1905 -1041 -946 -756 -755 -244 -223 -160 -174 -171 -167 -149 -150 -156 -159 -156 -152 -149 -147 -142 -140 -139 -140 -140 -140 -139 -136 -132 -131 -129 -124 -119 -118 -113 -105 -103 -101 -99 -99 -98 -98 -93 -89 -81 -73 -72 -72 -67 -63 -65 -65 -65 -60 -61 -61 -63 -66 -67 -69 -72 -74 -75 -79 -78 -76 -74 -73 -74 -70 -70 -69 -69 -69 -66 -60 -58 -59 -59 -54 -50 -50 -50 -50 -50 -48 -47 -40 -40 -37 -34 -31 -29 -23 -6 38 64 87 112 126 132 92 60 36 33 43 45 43 49 61 71 95 99 127 149 139 136 145 146 148 148 146 150 246 249 291 430 494 425 341 225 198 138 129 175 232 227 276 422 464 472 376 339 282 214 299 300 324 354 351 305 338 386 527 459 396 389 560 625 534 452 435 349 308 308 387 399 362 342 352 327 328 429 500 518 530 589 669 601 376 249 278 426 381 339 315 320 331 357 347 353 465 499 441 458 485 538 522 430 453 389 284 280 234 208 222 215 189 183 203 254 267 219 219 251 283 292 288 308 330 351 421 414 339 284 275 245 212 187 179 185 188 193 201 208 220 225 224 213 247 227 211 201 192 199 203 220 230 258 290 307 299 290 266 248 247 243 304 343 346 374 376 341 367 348 341 352 323 304 301 316 310 316 305 326 327 304 305 296 297 311 298 280 288 280 283 287 278 268 246 234 229 230 244 252 245 223 225 231 220 211 183 154 150 175 155 178 168 180 198 198 187 166 148 187 142 168 166 160 147 124 109 130 122 142 122 147 129 102 138 142 120 129 117 76 39 70 101 120 122 122 122 127 140 138 132 143 157 173 160 191 192 175 133 96 111 97 59 65 43 21 11 -5 -3 -1 -1 2 35 44 48 55 63 45 45 54 91 91 91 91 91 91 106 122 122 122 122 122 122 122 122 130 127 125 130 129 136 137 149 151 151 154 161 145 145 162 179 182 190 175 137 131 117 90 64 36 3 69 54 30 30 30 30 30 30 28 -2 -19 -30 -30 -30 -30 -30 -30 -30 -30 -30 -30 -30 -30 -30 -30 -30 -30 -30 -30 -30 -30 -30 -30 -30 -30 -30 -30 -30 -30 -30 -30
-2427 -2337 -2598 -2596 -2586 -2562 -2572 -2624 -2638 -2673 -2756 -2895 -2776 -3001 -3001 -2948 -2868 -2948 -2451 -2976 -2977 -2979 -2866 -2674 -2797 -2982 -2989 -2999 -3005 -3009 -3006 -3016 -3042 -3051 -3374 -3425 -3432 -3468 -3595 -3598 -3605 -3731 -3952 -3956 -3962 -3948 -3972 -3973 -3984 -4033 -4150 -4348 -4445 -4595 -4602 -4602 -4605 -4596 -4548 -4491 -4400 -4428 -4532 -4592 -4585 -4595 -4611 -4629 -4787 -4617 -4607 -4602 -4603 -4597 -4425 -4559 -4544 -4447 -4475 -4435 -4406 -4460 -4422 -4381 -4308 -4394 -4446 -4613 -4707 -4720 -4698 -4755 -4788 -4618 -4625 -4669 -4806 -4747 -4657 -4551 -4582 -4672 -4765 -4801 -4790 -4740 -4743 -4797 -4795 -4791 -4702 -4700 -4664 -4548 -4507 -4509 -4456 -4426 -4421 -4239 -4197 -4076 -3725 -3253 -2895 -2376 -2210 -2047 -2018 -1916 -2002 -2515 -2924 -2457 -1984 -1532 -1090 -1125 -1149 -844 -573 -176 -161 -176 -186 -151 -151 -157 -159 -157 -156 -153 -146 -144 -141 -140 -140 -140 -140 -140 -136 -134 -133 -129 -124 -121 -119 -117 -111 -110 -103 -100 -100 -101 -100 -97 -90 -88 -87 -86 -81 -74 -74 -72 -72 -72 -67 -71 -71 -71 -69 -69 -72 -76 -77 -76 -76 -76 -76 -76 -76 -75 -73 -73 -73 -74 -76 -75 -71 -65 -62 -59 -56 -50 -50 -50 -50 -49 -46 -44 -40 -39 -34 -31 -28 -24 -16 -3 39 59 71 94 121 130 125 93 68 36 37 18 20 25 37 55 75 89 151 151 149 149 150 153 157 157 229 250 253 304 443 544 532 482 462 378 227 205 167 215 251 275 320 416 459 507 367 267 242 193 270 295 377 437 356 332 349 423 524 561 430 372 449 574 680 637 633 517 382 430 460 456 437 393 381 417 428 476 584 595 636 658 604 310 265 454 380 282 241 297 314 313 296 268 304 413 477 466 409 414 378 418 591 593 366 386 404 283 242 280 275 267 225 204 189 184 197 210 243 236 263 283 275 278 310 392 420 412 316 277 244 234 210 192 191 215 233 229 249 273 270 273 259 226 266 325 263 253 207 186 199 228 241 262 282 303 303 312 276 252 325 324 378 371 361 370 371 367 336 342 316 335 325 310 310 315 327 313 322 317 305 301 303 330 330 323 318 295 281 278 278 277 284 287 280 266 239 220 220 228 238 236 241 226 217 203 188 159 164 177 156 188 188 186 197 210 198 172 161 139 141 145 154 165 156 152 118 101 118 114 119 135 139 113 114 120 139 136 109 87 73 35 51 97 121 122 122 118 115 126 148 151 183 183 198 220 209 186 133 94 71 45 48 34 14 -10 -10 -10 -10 -2 1 2 12 42 40 49 64 60 49 49 62 91 91 91 91 91 91 108 122 122 122 122 122 122 122 130 152 150 143 145 153 153 160 152 153 172 186 182 178 185 208 208 192 182 161 131 122 123 101 94 52 92 87 61 40 30 30 30 30 29 14 -3 -21 -30 -30 -30 -30 -30 -30 -30 -30 -30 -30 -30 -30 -30 -30 -30 -30 -30 -30 -30 -30 -30 -30 -30 -30 -30 -30 -30 -30 -30
-2594 -2598 -2598 -2594 -2595 -2593 -2595 -2607 -2615 -2634 -2676 -2982 -2994 -2999 -2951 -2808 -2613 -2490 -2107 -2786 -2918 -2932 -2813 -2660 -2769 -2975 -2991 -3000 -3016 -3017 -3016 -3027 -3045 -3173 -3287 -3390 -3393 -3489 -3589 -3598 -3635 -3735 -3831 -3754 -3713 -3692 -3968 -3979 -3989 -3994 -4015 -4135 -4438 -4598 -4651 -4607 -4603 -4599 -4573 -4494 -4448 -4484 -4540 -4595 -4610 -4648 -4779 -4702 -4978 -4762 -4634 -4607 -4615 -4556 -4459 -4568 -4464 -4414 -4438 -4429 -4418 -4295 -4197 -4207 -4364 -4403 -4558 -4577 -4599 -4535 -4646 -4731 -4769 -4660 -4723 -4762 -4799 -4733 -4680 -4618 -4645 -4702 -4806 -4789 -4759 -4763 -4774 -4765 -4750 -4707 -4702 -4674 -4602 -4559 -4546 -4584 -4528 -4502 -4518 -4417 -4175 -3895 -3481 -3102 -2917 -2645 -2541 -2511 -1991 -1950 -2281 -2821 -2925 -2716 -2083 -1972 -1958 -1715 -1317 -1008 -804 -345 -204 -180 -195 -182 -171 -165 -159 -157 -157 -153 -149 -145 -142 -141 -140 -140 -140 -140 -137 -136 -135 -134 -127 -124 -122 -118 -117 -117 -109 -107 -102 -103 -104 -101 -96 -95 -95 -94 -88 -80 -79 -77 -77 -73 -73 -78 -78 -78 -76 -75 -79 -82 -84 -88 -78 -82 -89 -90 -95 -81 -75 -75 -75 -74 -74 -75 -72 -66 -62 -58 -55 -50 -50 -50 -49 -48 -43 -40 -39 -34 -31 -29 -26 -17 -6 -1 41 55 88 104 120 126 118 98 96 33 28 28 36 52 99 128 107 136 165 170 153 159 169 199 248 255 254 256 308 425 495 540 589 527 550 419 395 343 240 218 247 269 284 355 355 323 274 227 203 207 187 215 412 490 385 328 360 513 668 544 408 389 422 467 563 684 679 587 548 535 470 515 491 434 453 565 611 633 629 699 742 725 579 300 246 313 242 182 186 215 282 304 261 244 276 316 328 379 360 299 285 320 605 698 473 432 558 449 329 394 444 340 280 239 222 203 190 205 237 249 268 280 280 286 319 379 306 304 284 242 224 207 203 213 212 214 250 234 243 297 322 317 268 286 342 333 333 295 257 212 230 236 244 255 273 285 290 311 334 297 340 334 326 350 366 372 365 352 346 334 319 327 330 313 314 314 311 314 322 322 324 317 327 334 334 328 316 294 283 261 266 270 279 285 259 259 256 230 227 236 245 241 248 226 205 183 193 168 160 182 188 187 200 210 208 201 192 183 183 132 149 135 167 172 161 138 142 106 116 99 102 106 122 96 92 111 116 114 92 87 65 18 30 67 113 119 122 125 120 113 136 156 214 227 201 166 166 146 138 128 53 22 39 -2 -3 -6 -10 -10 -10 -10 29 35 33 33 36 35 35 31 36 41 64 85 91 91 91 91 91 105 122 122 122 122 122 122 122 122 149 152 152 152 162 170 181 163 160 192 211 212 211 221 220 225 211 198 183 128 126 147 140 129 112 106 94 70 57 38 30 30 31 30 28 8 -16 -28 -30 -30 -30 -30 -30 -30 -30 -30 -30 -30 -30 -30 -30 -30 -30 -30 -30 -30 -30 -30 -30 -30 -30 -30 -30 -30 -30 -30
-2601 -2606 -2599 -2591 -2596 -2599 -2596 -2597 -2619 -2662 -2787 -2983 -3006 -3009 -2989 -2852 -2611 -2085 -1921 -2344 -2629 -2672 -2655 -2662 -2730 -2863 -2946 -2995 -3004 -3021 -3015 -3015 -3024 -3089 -3014 -3246 -3359 -3547 -3589 -3607 -3647 -3705 -3677 -3702 -3585 -3620 -3912 -3938 -3966 -3976 -4010 -4574 -4596 -4647 -4715 -4634 -4605 -4600 -4573 -4510 -4507 -4546 -4559 -4582 -4628 -4741 -4937 -4983 -4976 -4735 -4619 -4616 -4620 -4571 -4527 -4580 -4468 -4462 -4451 -4499 -4466 -4261 -4230 -4263 -4348 -4409 -4451 -4512 -4693 -4668 -4707 -4731 -4738 -4669 -4708 -4807 -4806 -4767 -4701 -4679 -4719 -4753 -4810 -4795 -4784 -4785 -4788 -4794 -4772 -4683 -4671 -4613 -4641 -4622 -4611 -4595 -4588 -4589 -4597 -4510 -4218 -3817 -3241 -2999 -2867 -2783 -3185 -3248 -2168 -2142 -2457 -3100 -3108 -2961 -2281 -2154 -2205 -2254 -1738 -1144 -896 -480 -320 -337 -233 -185 -183 -166 -149 -145 -148 -149 -151 -146 -145 -142 -140 -140 -140 -139 -139 -138 -138 -136 -130 -128 -126 -120 -117 -117 -115 -113 -109 -109 -108 -105 -101 -101 -100 -98 -92 -86 -85 -83 -82 -79 -80 -82 -82 -82 -80 -81 -86 -90 -91 -92 -91 -88 -87 -83 -92 -83 -77 -68 -67 -66 -66 -71 -67 -63 -56 -54 -51 -50 -50 -48 -46 -41 -39 -37 -37 -31 -27 -23 -15 -8 19 17 35 62 97 107 128 142 145 110 97 51 50 54 76 113 134 155 135 172 176 187 218 250 250 250 271 268 274 299 415 419 474 504 565 452 539 470 404 418 404 242 167 209 316 270 243 217 251 298 278 213 151 187 325 446 400 360 428 569 617 428 340 375 392 421 457 574 583 609 623 589 528 545 499 471 534 698 762 791 845 840 712 547 355 265 210 262 259 227 211 186 225 257 233 251 245 256 274 281 313 265 254 314 511 708 624 522 658 704 598 534 682 478 360 277 256 237 200 218 239 259 278 265 246 246 259 296 277 227 240 245 225 213 221 266 253 263 288 290 269 311 316 316 324 366 331 330 328 322 271 222 232 260 281 281 283 282 278 300 341 322 355 325 337 356 342 353 372 352 343 331 319 323 320 321 323 312 309 317 319 294 300 313 323 313 310 313 307 309 294 277 278 269 249 248 244 229 241 237 229 234 237 224 238 239 206 184 182 174 166 180 176 181 180 190 184 189 203 203 187 157 129 133 163 163 145 130 120 95 92 87 94 85 95 73 71 74 94 91 75 87 73 18 3 46 83 103 118 125 126 126 165 204 204 219 190 135 120 116 100 83 48 -2 -4 -10 -10 -10 -10 -10 -8 -6 23 26 28 24 31 32 36 43 56 45 41 62 91 91 91 91 91 97 120 122 122 122 122 122 122 122 135 152 152 152 169 189 194 225 194 221 245 267 252 247 245 208 198 195 198 163 150 170 178 156 142 115 103 88 69 46 35 35 40 30 30 20 10 -18 -28 -29 -30 -30 -30 -30 -30 -30 -30 -30 -30 -30 -30 -30 -30 -30 -30 -30 -30 -30 -30 -30 -30 -30 -30 -30 -30 -30
-2619 -2605 -2601 -2596 -2599 -2597 -2594 -2597 -2624 -2762 -2874 -2987 -3003 -2998 -2987 -2896 -2617 -2228 -1416 -1787 -2603 -2700 -2845 -2853 -2687 -2620 -2961 -2989 -2998 -3010 -3006 -2999 -3005 -3001 -3009 -3181 -3376 -3500 -3604 -3622 -3630 -3635 -3582 -3582 -3560 -3590 -3745 -3822 -3898 -3931 -4008 -4445 -4592 -4656 -4708 -4627 -4599 -4596 -4575 -4535 -4557 -4569 -4585 -4587 -4607 -4740 -4818 -4822 -4850 -4607 -4604 -4611 -4606 -4558 -4507 -4563 -4546 -4505 -4515 -4582 -4459 -4343 -4513 -4500 -4515 -4489 -4551 -4569 -4697 -4751 -4755 -4770 -4785 -4797 -4805 -4818 -4815 -4783 -4741 -4732 -4754 -4772 -4815 -4813 -4794 -4796 -4794 -4781 -4690 -4616 -4608 -4698 -4745 -4688 -4651 -4612 -4605 -4613 -4597 -4527 -4188 -3831 -3446 -3431 -3082 -3274 -3859 -3721 -2686 -2606 -2736 -3176 -3180 -3021 -2691 -2637 -2791 -2798 -2061 -1643 -1191 -809 -730 -748 -228 -192 -181 -164 -142 -134 -138 -147 -150 -152 -151 -145 -142 -142 -142 -141 -140 -140 -139 -137 -133 -131 -128 -124 -120 -120 -120 -117 -114 -113 -112 -108 -106 -106 -104 -100 -94 -92 -91 -87 -84 -82 -83 -84 -85 -85 -84 -88 -92 -93 -93 -97 -88 -72 -61 -51 -64 -66 -52 -44 -54 -54 -55 -59 -60 -57 -52 -48 -49 -50 -49 -45 -40 -36 -33 -36 -33 -29 -18 -11 -6 31 80 65 56 60 100 119 123 130 136 119 103 75 68 78 101 130 151 178 173 210 200 229 250 245 246 250 262 250 287 341 491 471 479 486 536 504 484 460 458 466 416 265 199 172 277 255 232 221 294 394 322 207 144 193 263 311 326 366 460 572 440 353 315 328 338 367 383 403 431 496 557 583 586 561 530 523 545 643 720 724 732 657 559 400 300 267 250 354 311 243 204 203 200 205 210 213 206 213 249 251 267 253 258 312 329 524 601 530 702 749 830 881 683 542 392 310 268 243 211 236 253 259 267 255 249 247 246 263 262 271 301 316 282 267 289 300 289 324 305 328 296 286 287 318 329 374 366 348 411 413 352 270 230 288 289 284 276 273 272 275 311 292 301 296 319 333 340 340 369 363 345 330 324 331 317 311 324 325 300 301 321 307 287 299 318 309 299 309 318 310 293 297 287 273 259 240 247 230 223 218 218 218 218 213 219 224 213 195 178 163 146 154 159 173 176 181 188 202 216 209 171 162 133 139 145 158 145 128 96 88 78 94 89 72 82 69 60 68 80 66 63 68 69 35 17 39 73 86 110 122 128 149 166 193 228 183 165 138 97 95 57 33 26 -5 -10 -10 -10 -10 -10 -10 6 2 10 14 23 29 33 29 34 52 50 50 48 61 83 91 91 91 91 104 119 122 122 122 122 122 125 122 125 147 157 167 189 220 236 272 226 229 262 286 292 272 249 200 189 187 188 179 163 167 162 153 152 134 99 91 76 59 52 52 52 40 45 30 23 -1 -13 -26 -24 -24 -24 -30 -30 -30 -30 -30 -30 -30 -30 -30 -30 -30 -30 -30 -30 -30 -30 -30 -30 -30 -30 -30 -30 -30
-2630 -2600 -2599 -2601 -2598 -2594 -2593 -2602 -2621 -2891 -2944 -2996 -3001 -3000 -3020 -2960 -2805 -2267 -1980 -2185 -2454 -2774 -2980 -2910 -2691 -2614 -2637 -2805 -2934 -2965 -2997 -2989 -2973 -2976 -3030 -3144 -3413 -3538 -3612 -3615 -3615 -3575 -3538 -3532 -3539 -3601 -3712 -3798 -3890 -3967 -4011 -4277 -4433 -4506 -4620 -4601 -4601 -4597 -4574 -4562 -4566 -4527 -4540 -4582 -4561 -4619 -4619 -4610 -4638 -4602 -4601 -4600 -4594 -4547 -4376 -4444 -4373 -4403 -4465 -4498 -4524 -4551 -4596 -4593 -4593 -4583 -4541 -4536 -4620 -4666 -4708 -4696 -4690 -4797 -4814 -4821 -4821 -4787 -4767 -4729 -4769 -4799 -4818 -4817 -4807 -4800 -4795 -4748 -4678 -4660 -4710 -4796 -4782 -4720 -4656 -4613 -4625 -4621 -4589 -4449 -4013 -3993 -4015 -3985 -3680 -3856 -3921 -3504 -3119 -3103 -3208 -3437 -3437 -3118 -2904 -2936 -3005 -2815 -2147 -1997 -1442 -982 -1125 -1010 -230 -213 -190 -170 -154 -140 -140 -144 -152 -158 -156 -148 -145 -145 -145 -142 -142 -142 -140 -138 -136 -135 -131 -128 -126 -125 -123 -118 -116 -116 -116 -112 -111 -110 -108 -101 -96 -94 -91 -88 -85 -85 -84 -88 -89 -90 -90 -93 -86 -81 -80 -83 -68 -58 -52 -50 -40 -40 -14 -13 -22 -27 -41 -45 -52 -50 -49 -42 -47 -44 -43 -40 -35 -30 -28 -31 -21 -12 -5 11 49 112 115 105 102 66 77 83 95 97 113 125 116 109 101 117 132 145 170 185 186 225 238 236 231 217 218 233 236 342 380 376 468 480 458 469 514 540 446 490 474 461 383 265 223 208 274 307 366 322 374 468 311 169 147 167 197 274 344 352 378 436 315 325 328 326 339 337 322 350 353 380 475 571 614 574 571 599 588 529 568 501 501 549 613 487 341 319 359 395 346 299 285 267 234 217 206 187 191 212 235 239 246 245 260 276 322 439 487 594 649 592 775 1015 679 546 447 343 282 253 234 239 256 263 268 266 279 289 297 306 301 338 427 379 358 352 382 322 340 368 324 330 306 279 302 310 317 314 326 376 447 477 445 365 303 308 303 290 284 275 270 268 268 251 268 280 279 283 317 336 353 366 348 340 329 325 315 301 298 314 307 296 318 309 293 280 294 294 291 298 310 306 289 290 286 285 275 253 245 229 219 207 214 208 211 208 204 207 196 192 183 171 154 138 155 181 173 189 202 216 222 209 174 154 123 125 116 130 147 132 100 88 74 101 95 79 74 64 51 57 58 29 33 26 17 21 31 44 60 78 103 122 125 129 138 171 197 129 134 110 57 55 24 1 0 -1 -5 -5 -7 -10 -7 -5 18 15 17 28 29 37 42 36 41 40 36 50 56 57 72 88 87 90 91 104 122 122 122 122 122 125 130 122 124 143 167 190 210 251 274 278 257 223 271 294 306 283 263 240 206 197 204 182 172 171 162 161 152 126 99 98 87 68 61 61 61 58 58 42 39 25 15 -3 -7 -7 -9 -30 -30 -30 -30 -30 -30 -30 -30 -30 -30 -30 -30 -30 -30 -30 -30 -30 -30 -30 -30 -30 -30 -30
-2614 -2599 -2601 -2602 -2571 -2504 -2435 -2538 -2555 -2975 -2994 -3000 -3007 -3010 -3015 -3032 -2980 -2483 -2669 -2758 -2770 -2920 -2980 -2936 -2861 -2298 -2159 -2339 -2868 -2961 -2997 -2978 -2959 -2963 -3010 -3092 -3433 -3581 -3617 -3605 -3593 -3554 -3520 -3563 -3576 -3616 -3739 -3849 -3942 -4000 -4011 -4109 -4121 -4254 -4579 -4593 -4599 -4599 -4587 -4582 -4584 -4552 -4524 -4468 -4519 -4590 -4602 -4603 -4597 -4484 -4542 -4568 -4544 -4419 -4251 -4156 -4139 -4269 -4279 -4357 -4487 -4589 -4607 -4597 -4595 -4553 -4507 -4516 -4587 -4618 -4638 -4616 -4609 -4790 -4805 -4825 -4826 -4784 -4772 -4769 -4789 -4800 -4811 -4817 -4803 -4800 -4791 -4760 -4762 -4764 -4795 -4794 -4761 -4692 -4630 -4613 -4621 -4606 -4474 -4330 -4149 -4041 -4031 -3998 -4016 -4001 -3978 -3621 -3488 -3427 -3539 -3809 -3784 -3345 -3041 -3015 -3002 -2649 -2051 -2151 -1945 -1662 -1726 -928 -437 -304 -198 -175 -169 -166 -166 -151 -165 -169 -159 -155 -154 -153 -148 -145 -144 -144 -140 -140 -139 -138 -134 -132 -131 -129 -127 -120 -119 -118 -117 -115 -114 -113 -109 -101 -98 -97 -92 -88 -85 -84 -83 -85 -86 -89 -86 -82 -74 -75 -75 -70 -47 -33 -43 -44 -35 -19 -3 77 55 1 -9 -37 -41 -43 -42 -40 -41 -39 -35 -33 -30 -23 -27 -12 63 70 67 79 112 142 144 125 142 100 82 69 69 74 86 95 98 114 128 143 145 156 185 195 177 225 249 250 259 266 300 282 303 469 479 438 458 455 449 473 464 482 457 486 434 387 294 276 308 354 251 359 394 374 322 282 166 123 122 155 202 335 412 357 311 306 303 311 347 344 332 325 314 332 344 363 398 470 554 581 581 578 540 473 497 609 591 631 621 518 408 401 377 418 400 365 350 292 263 277 276 240 220 211 227 234 229 231 247 387 319 416 457 502 481 442 629 811 641 551 482 392 350 310 256 238 246 261 282 359 437 441 478 517 386 427 520 492 520 471 457 468 372 414 372 413 376 353 373 401 416 353 355 369 429 483 520 494 433 336 389 344 302 292 288 285 270 258 268 275 254 256 298 321 342 367 344 354 335 312 305 290 276 285 310 290 311 296 296 284 273 271 276 280 288 288 263 276 279 277 271 268 243 230 230 213 205 202 190 197 194 197 182 182 179 174 173 137 148 153 158 188 212 221 212 198 174 156 135 108 98 108 120 112 99 96 70 96 98 91 83 70 35 27 27 17 17 32 58 52 38 52 61 76 85 106 119 127 137 151 170 110 81 67 39 27 14 1 -1 -1 -2 -1 -2 -4 5 13 22 22 30 26 27 29 30 38 45 43 47 41 50 52 70 84 71 79 95 108 122 122 124 124 122 132 144 137 134 152 172 216 257 287 308 297 272 249 271 287 316 308 287 270 238 220 224 189 165 169 175 178 173 145 125 113 96 78 64 61 61 71 65 58 60 55 43 43 23 5 -2 -22 -25 -17 -26 -30 -30 -30 -30 -30 -30 -30 -30 -30 -30 -30 -30 -30 -30 -30 -30 -30 -30 -30
-2641 -2602 -2601 -2592 -2544 -2453 -2354 -2389 -2574 -2981 -2961 -3003 -3007 -3014 -3011 -3019 -2990 -2873 -2935 -3013 -3087 -2926 -2686 -2841 -2968 -2138 -2076 -2545 -2853 -2986 -2999 -2979 -2960 -2957 -3004 -3059 -3442 -3601 -3609 -3601 -3588 -3570 -3573 -3322 -3598 -3675 -3822 -3888 -3971 -4000 -4003 -4013 -3998 -4213 -4388 -4512 -4596 -4598 -4597 -4597 -4596 -4582 -4522 -4446 -4435 -4549 -4584 -4574 -4590 -4418 -4458 -4488 -4456 -4176 -4060 -3999 -4010 -4073 -4083 -4246 -4476 -4609 -4620 -4608 -4586 -4544 -4465 -4353 -4164 -4389 -4593 -4600 -4729 -4727 -4667 -4803 -4813 -4812 -4804 -4769 -4756 -4763 -4804 -4816 -4805 -4800 -4797 -4798 -4798 -4808 -4802 -4787 -4695 -4623 -4609 -4615 -4619 -4564 -4415 -4379 -4304 -4181 -4111 -4026 -4040 -4045 -4016 -3920 -3885 -3820 -3816 -4035 -4044 -3572 -3227 -3034 -3003 -2902 -2781 -2632 -2604 -2513 -2059 -1046 -872 -347 -204 -190 -189 -185 -178 -178 -191 -168 -161 -157 -155 -154 -153 -151 -150 -148 -142 -142 -141 -139 -137 -136 -132 -132 -127 -124 -120 -120 -119 -118 -118 -116 -112 -103 -100 -97 -92 -87 -85 -83 -82 -80 -72 -77 -74 -74 -75 -76 -75 -60 -48 -43 -43 -36 -27 -7 -8 68 45 32 -1 -19 -31 -31 -31 -36 -32 -32 -31 -26 -20 57 11 83 114 141 128 127 146 154 185 164 181 146 104 84 74 72 76 78 73 101 114 119 126 150 170 191 230 245 295 331 350 378 389 367 385 496 481 490 480 450 436 449 447 409 422 416 356 288 268 371 415 434 372 326 317 194 163 132 108 129 124 140 262 345 384 323 276 261 288 255 279 321 329 319 302 367 464 418 381 406 532 731 639 557 534 485 526 768 671 643 579 505 500 485 426 388 369 390 341 312 339 386 391 341 327 288 244 268 275 262 258 459 350 389 455 435 426 379 439 563 611 624 584 493 426 356 261 242 272 275 340 531 660 528 476 579 526 497 556 578 609 688 608 492 325 422 487 495 528 502 452 460 499 527 457 409 440 519 513 560 523 469 602 516 421 322 306 305 301 290 285 291 263 249 274 307 342 358 343 350 339 311 277 278 275 272 271 267 308 290 253 256 254 257 240 266 251 259 250 254 274 273 261 274 268 260 237 225 221 204 189 167 174 176 170 167 160 147 163 146 150 147 157 159 181 186 171 170 179 138 124 109 95 98 103 95 86 95 68 86 94 93 91 79 27 12 12 22 43 72 76 65 39 51 67 76 77 84 97 103 112 87 83 71 48 48 39 23 7 0 -2 -2 -3 -2 -2 7 18 20 21 20 22 21 24 26 24 32 30 30 36 46 45 48 62 81 77 81 92 108 124 134 134 128 122 134 150 150 149 170 229 269 317 310 327 317 285 271 285 323 358 336 305 287 268 242 248 220 187 165 167 181 183 164 146 129 111 88 66 61 61 76 76 85 87 93 87 66 39 25 13 15 -1 4 -12 -26 -30 -30 -30 -30 -30 -30 -30 -30 -30 -30 -30 -30 -30 -30 -30 -30 -30 -30
-2622 -2633 -2610 -2599 -2522 -2417 -2356 -2398 -2775 -2930 -2781 -2906 -2999 -3004 -3007 -3008 -3018 -2996 -3170 -3153 -3094 -2886 -2533 -2661 -2767 -2565 -2565 -2956 -2979 -2990 -2990 -2975 -2965 -2960 -3010 -3379 -3573 -3595 -3599 -3596 -3584 -3570 -3592 -3549 -3759 -3915 -3881 -3966 -3994 -3997 -3984 -3998 -3963 -4072 -4297 -4535 -4589 -4595 -4606 -4605 -4574 -4543 -4522 -4519 -4563 -4590 -4569 -4580 -4588 -4410 -4393 -4329 -4172 -4003 -4016 -4032 -3999 -3983 -4068 -4313 -4403 -4515 -4593 -4594 -4571 -4544 -4504 -4402 -4384 -4527 -4566 -4599 -4620 -4614 -4619 -4668 -4799 -4812 -4824 -4772 -4684 -4749 -4786 -4811 -4804 -4800 -4803 -4809 -4806 -4800 -4800 -4712 -4687 -4655 -4665 -4640 -4636 -4596 -4494 -4402 -4355 -4360 -4278 -4100 -4018 -4018 -4009 -4002 -4047 -4028 -4013 -4132 -4029 -3795 -3591 -3058 -3014 -3007 -3059 -3016 -2947 -2917 -2428 -1889 -968 -510 -141 -150 -161 -203 -187 -195 -181 -163 -165 -156 -152 -152 -154 -155 -156 -149 -145 -143 -142 -141 -142 -138 -135 -133 -129 -124 -122 -121 -121 -122 -121 -118 -115 -105 -101 -97 -93 -88 -84 -81 -77 -67 -66 -67 -70 -74 -74 -76 -72 -57 -51 -49 -45 -34 -18 -4 -9 48 21 16 -5 -9 -24 -21 -20 -29 -29 -29 -29 -21 -8 82 112 138 130 148 151 155 165 149 206 203 191 167 128 120 106 93 88 85 77 92 93 100 100 118 145 185 204 206 284 327 321 321 332 380 400 431 453 455 453 450 439 404 339 285 313 320 222 242 305 393 392 483 463 209 186 176 109 93 110 153 140 129 172 341 380 318 248 263 270 256 205 272 324 298 268 358 483 442 478 408 494 661 611 614 544 602 664 650 679 624 570 498 466 412 376 441 702 338 324 320 359 368 398 398 428 388 318 294 392 392 341 409 369 451 475 464 452 357 294 316 496 611 602 494 377 282 267 281 311 325 430 639 763 663 551 813 753 676 574 714 855 823 591 433 462 712 673 615 617 565 539 430 541 592 557 490 488 536 572 613 522 577 650 587 650 561 366 324 326 345 337 281 282 292 264 253 278 243 348 331 333 311 273 278 282 280 251 255 239 279 252 282 267 252 204 227 245 243 245 232 243 251 257 269 262 268 245 225 214 212 208 196 179 150 137 147 154 128 123 121 122 134 152 141 157 150 148 161 155 142 102 101 87 101 101 91 75 79 56 61 82 88 86 82 35 51 55 57 66 65 73 74 53 58 62 88 62 71 85 70 65 51 47 46 31 31 17 -3 0 -2 -3 -4 -7 -6 -5 -2 9 9 13 18 15 17 10 20 23 22 23 28 36 47 57 59 57 74 90 90 91 100 110 131 151 146 138 147 152 152 183 236 321 316 338 347 383 349 324 313 303 355 398 340 313 291 274 264 255 226 191 177 169 181 183 180 162 141 115 105 89 65 61 77 103 104 119 112 96 79 61 58 42 33 36 31 21 -17 -30 -30 -30 -30 -30 -30 -30 -30 -30 -18 -23 -30 -28 -25 -30 -30 -30 -30
-2615 -2709 -2742 -2631 -2647 -2649 -2640 -2717 -2832 -2983 -2993 -2997 -3002 -3003 -3007 -3012 -3012 -3184 -3184 -3144 -3087 -2998 -2930 -2834 -2750 -2954 -2986 -3003 -3052 -3007 -2993 -2977 -2963 -2978 -3105 -3392 -3446 -3597 -3603 -3603 -3583 -3579 -3608 -3687 -3983 -3987 -3980 -3990 -3999 -3998 -3995 -3967 -3968 -4018 -4206 -4468 -4551 -4593 -4589 -4599 -4592 -4557 -4564 -4586 -4594 -4587 -4566 -4586 -4412 -4404 -4370 -4249 -4106 -3990 -3990 -4010 -4061 -4023 -4161 -4196 -4117 -4256 -4393 -4481 -4576 -4589 -4455 -4443 -4518 -4589 -4593 -4598 -4605 -4631 -4615 -4648 -4767 -4784 -4784 -4762 -4713 -4733 -4806 -4814 -4809 -4801 -4807 -4815 -4814 -4809 -4798 -4762 -4753 -4759 -4697 -4688 -4675 -4619 -4595 -4581 -4421 -4466 -4271 -4028 -4021 -4026 -4014 -4061 -4108 -4055 -4088 -4117 -4022 -3954 -3656 -3341 -3034 -3045 -3208 -3342 -3147 -3013 -2783 -1192 -856 -248 -155 -261 -330 -271 -214 -202 -170 -157 -167 -155 -145 -148 -160 -165 -159 -149 -147 -144 -142 -142 -141 -140 -136 -134 -131 -127 -124 -122 -121 -121 -119 -117 -115 -108 -104 -99 -93 -86 -82 -78 -68 -66 -64 -67 -69 -69 -68 -69 -62 -57 -51 -49 -45 -34 -15 -3 -7 -9 19 11 -1 -1 0 -1 -16 -28 -28 -22 -18 -10 3 84 110 124 78 98 113 145 177 182 184 213 183 177 155 147 111 100 94 85 74 81 81 80 92 95 112 167 220 249 249 237 192 248 337 348 370 398 426 450 450 448 367 283 300 286 327 308 231 360 461 432 430 416 218 180 191 162 122 92 125 173 162 219 193 360 391 279 230 263 269 270 244 289 370 323 276 393 463 429 441 480 455 481 556 544 491 538 666 578 551 515 499 477 424 423 458 449 320 385 420 381 370 363 441 390 425 485 472 429 494 566 560 528 512 558 476 468 403 349 268 235 302 554 539 461 343 308 346 426 494 570 479 633 644 771 1007 894 954 736 714 648 617 654 688 794 780 738 620 640 517 454 425 388 397 446 583 622 644 689 726 669 715 679 670 809 659 531 434 375 353 405 366 320 317 335 265 278 338 247 280 313 334 318 275 272 264 262 258 250 238 290 262 231 229 194 190 210 224 230 234 220 224 231 235 228 260 264 261 231 224 218 204 199 185 143 128 133 150 153 138 119 124 116 126 147 134 121 113 120 108 114 86 89 72 95 92 85 73 80 79 54 51 81 83 82 57 59 60 62 68 64 75 74 70 63 46 53 60 65 82 66 45 45 31 30 28 8 -10 -5 -1 -1 -4 -6 -9 -9 -9 -8 -3 -2 -1 -1 -9 7 10 17 21 24 25 40 40 46 48 55 68 72 85 91 91 91 96 130 152 152 152 164 182 184 214 230 290 297 309 355 418 385 339 360 326 334 411 352 305 305 289 274 266 232 206 189 183 196 198 189 164 153 146 137 106 68 90 94 122 122 122 122 112 95 65 61 90 76 74 65 44 37 8 0 -26 -27 -24 -28 -28 -25 -28 -4 -15 -29 -17 -6 -22 -30 -30 -30
-2668 -2978 -2824 -2816 -2802 -2822 -2943 -2984 -2990 -3015 -2996 -2998 -3001 -3019 -3052 -3132 -3186 -3193 -3081 -3054 -3121 -3141 -3182 -3180 -3027 -3003 -2983 -3129 -3109 -3197 -3118 -3007 -2970 -2998 -3251 -3405 -3516 -3600 -3609 -3597 -3572 -3553 -3569 -3848 -3984 -4006 -3998 -3999 -4002 -3999 -3995 -3989 -3975 -4079 -4235 -4372 -4503 -4568 -4560 -4604 -4590 -4558 -4572 -4598 -4598 -4594 -4594 -4597 -4568 -4400 -4359 -4240 -4113 -4019 -4024 -4163 -4136 -4109 -4111 -4111 -4021 -4031 -4056 -4426 -4626 -4647 -4573 -4562 -4566 -4590 -4594 -4599 -4606 -4705 -4743 -4791 -4752 -4700 -4769 -4810 -4742 -4734 -4792 -4808 -4808 -4806 -4816 -4818 -4817 -4814 -4815 -4799 -4804 -4780 -4731 -4708 -4668 -4632 -4621 -4593 -4535 -4534 -4491 -4417 -4210 -4462 -4141 -4094 -4022 -4039 -4200 -4401 -4186 -4020 -3896 -3392 -3040 -3126 -3455 -3365 -3070 -2972 -2198 -1598 -914 -978 -410 -579 -634 -419 -240 -156 -132 -155 -166 -174 -161 -155 -169 -173 -167 -155 -150 -151 -150 -145 -143 -141 -138 -134 -131 -128 -125 -122 -121 -121 -118 -115 -110 -105 -100 -95 -89 -85 -81 -77 -70 -67 -64 -65 -65 -63 -65 -64 -57 -53 -47 -43 -38 -18 -8 -10 -7 -4 37 16 18 24 40 56 12 4 -11 -10 -8 -5 2 23 34 51 49 46 80 119 152 164 150 169 148 146 143 142 121 96 92 93 93 93 73 106 106 90 112 141 188 193 194 212 229 203 203 265 292 338 357 436 422 352 293 307 315 313 262 303 373 497 502 413 328 308 218 241 198 190 133 90 127 215 230 251 251 353 375 274 263 270 278 269 243 292 365 320 276 378 431 432 454 491 497 451 503 513 536 639 628 595 502 469 428 389 379 403 552 516 514 466 421 370 382 463 463 441 424 446 472 510 518 552 645 565 595 572 488 424 454 460 330 248 245 366 547 435 327 391 489 621 586 769 697 549 659 734 803 827 679 634 685 732 834 750 626 719 755 599 601 603 497 387 353 327 307 353 450 623 700 729 790 819 755 660 721 864 858 722 627 532 485 435 367 382 392 346 286 261 282 267 271 322 291 297 284 265 270 239 250 225 188 211 225 216 224 246 189 195 176 181 212 212 211 202 216 196 235 240 260 232 220 199 183 167 154 158 175 165 161 145 119 109 135 125 114 114 109 103 107 89 90 106 77 77 74 82 88 87 84 78 78 72 58 78 77 73 65 72 80 79 73 79 79 76 75 65 45 30 31 43 63 55 33 28 14 13 11 -1 -1 -1 -2 -3 -7 -8 -10 -13 -13 -12 -11 -8 -6 -2 -1 1 -3 3 21 21 28 31 42 40 46 57 55 59 79 90 91 107 98 107 148 151 152 163 208 218 245 256 293 306 357 444 458 461 370 348 353 326 388 404 321 305 289 275 274 262 222 200 200 200 213 199 183 178 170 146 118 100 120 122 122 122 123 124 114 97 84 70 109 91 93 108 113 90 96 36 166 85 31 74 80 -3 -22 -18 -2 -17 -27 -19 -27 -30 -30 -30
-2998 -2997 -2970 -2905 -2909 -2970 -2988 -2997 -3014 -2991 -3022 -3016 -2997 -3097 -3184 -3172 -3185 -3155 -3070 -3175 -3079 -3109 -3189 -3189 -3078 -3023 -3029 -3677 -3578 -3471 -3227 -3037 -2988 -3043 -3278 -3397 -3493 -3577 -3602 -3585 -3536 -3410 -3468 -3839 -4010 -3998 -4002 -4002 -4003 -4000 -3996 -3974 -4003 -4100 -4255 -4382 -4473 -4543 -4555 -4558 -4544 -4501 -4468 -4599 -4602 -4577 -4586 -4611 -4470 -4386 -4348 -4204 -4137 -4068 -4125 -4184 -4187 -4003 -4002 -3966 -3889 -3987 -4261 -4548 -4656 -4671 -4569 -4500 -4529 -4577 -4595 -4601 -4600 -4763 -4736 -4731 -4750 -4691 -4762 -4794 -4684 -4688 -4778 -4800 -4811 -4819 -4821 -4821 -4821 -4822 -4814 -4809 -4805 -4792 -4751 -4717 -4691 -4649 -4622 -4597 -4591 -4606 -4612 -4609 -4593 -4570 -4564 -4119 -4155 -4199 -4430 -4439 -4324 -4177 -4049 -3486 -3264 -3398 -3797 -3597 -3085 -2895 -2269 -1859 -1456 -1796 -1266 -1275 -1279 -894 -442 -330 -320 -142 -188 -193 -173 -168 -182 -178 -172 -159 -157 -159 -159 -159 -149 -140 -138 -133 -131 -129 -127 -123 -121 -119 -117 -110 -107 -100 -97 -85 -76 -75 -72 -65 -63 -64 -61 -61 -60 -58 -59 -54 -51 -46 -41 -36 -30 -18 -10 -8 -7 -3 42 31 43 70 99 75 52 44 6 7 10 9 15 79 94 108 132 96 53 88 125 147 173 140 141 117 102 117 128 106 93 93 76 82 98 122 106 102 115 134 137 137 144 192 201 215 218 215 256 268 344 344 344 333 309 307 276 236 264 472 553 569 479 398 326 282 270 307 264 210 110 91 144 246 247 272 279 309 278 253 293 294 279 262 261 320 342 310 282 286 384 446 468 453 471 447 439 467 524 610 616 587 491 467 420 380 385 418 453 621 661 490 414 376 427 521 470 500 501 494 521 496 480 554 601 689 661 592 531 422 525 565 345 254 225 264 306 315 376 436 505 695 750 658 623 546 674 804 831 777 684 699 838 899 1081 1203 947 748 718 687 603 674 695 488 310 271 297 310 319 451 569 669 696 695 791 760 693 835 796 787 845 722 582 562 538 480 440 352 318 292 290 310 262 297 288 265 262 231 208 237 220 187 181 167 217 250 260 261 253 250 230 224 208 186 167 166 194 168 192 218 242 227 227 207 197 193 183 189 163 148 137 133 129 134 131 104 104 83 72 81 98 83 77 100 83 72 63 71 86 82 79 57 73 66 64 78 75 62 34 41 77 77 72 69 70 70 71 72 37 30 30 30 35 32 15 11 1 -3 0 -1 -1 -2 -3 -4 -8 -10 -12 -17 -17 -17 -16 -12 -10 -5 -1 9 4 11 10 12 20 23 31 38 49 44 50 61 63 86 91 107 104 97 118 141 153 158 215 252 256 285 326 379 373 449 534 498 429 313 345 356 394 421 347 314 297 278 271 264 236 213 212 213 213 212 195 183 178 163 135 98 116 122 123 126 132 138 135 122 122 134 144 104 110 130 180 186 253 272 430 303 268 283 292 158 27 -26 -11 -17 -29 -27 -30 -30 -30 -30
-3020 -3002 -2993 -2972 -2982 -3014 -3019 -3008 -3012 -2941 -3011 -3026 -3037 -3138 -3201 -3188 -3170 -3038 -3111 -3173 -3103 -3176 -3176 -3180 -3149 -3026 -2989 -3159 -3912 -3769 -3421 -3037 -2953 -2953 -3267 -3399 -3454 -3503 -3582 -3582 -3524 -3344 -3591 -3986 -3997 -3998 -4000 -4001 -4002 -4000 -3993 -3990 -4059 -4165 -4299 -4371 -4501 -4548 -4516 -4481 -4429 -4408 -4465 -4597 -4600 -4550 -4565 -4527 -4460 -4383 -4376 -4310 -4206 -4144 -4173 -4191 -4186 -4001 -3984 -3931 -3998 -4390 -4551 -4602 -4663 -4664 -4429 -4290 -4486 -4576 -4595 -4596 -4588 -4672 -4524 -4515 -4699 -4751 -4782 -4799 -4790 -4624 -4762 -4781 -4806 -4818 -4824 -4823 -4822 -4827 -4811 -4808 -4814 -4793 -4755 -4718 -4694 -4675 -4643 -4601 -4611 -4655 -4673 -4682 -4649 -4569 -4539 -4411 -4310 -4484 -4527 -4488 -4429 -4308 -4255 -3841 -3645 -3775 -3985 -3859 -3457 -3108 -2703 -2540 -2788 -2849 -2347 -2354 -2163 -1454 -885 -743 -571 -372 -367 -275 -224 -186 -195 -184 -169 -168 -161 -157 -153 -151 -143 -140 -138 -135 -133 -131 -127 -123 -120 -118 -115 -109 -103 -97 -75 -61 -60 -63 -62 -51 -48 -58 -51 -44 -31 -41 -52 -44 -42 -37 -33 -29 -23 -15 -7 -7 -6 -2 89 78 74 110 159 110 84 55 36 28 47 68 95 127 140 114 132 117 64 62 113 123 121 121 160 146 117 98 109 114 82 61 114 113 115 116 130 134 105 99 100 109 106 138 151 192 221 216 262 251 316 317 325 318 297 264 272 293 331 469 436 462 437 427 325 312 319 318 246 201 108 92 131 308 340 369 383 338 332 294 310 312 275 269 342 349 341 322 299 291 330 479 512 455 469 442 442 422 493 575 632 621 484 450 416 395 409 440 498 625 578 496 450 466 499 541 484 589 548 523 548 557 513 542 578 547 569 518 473 389 499 571 353 249 209 221 272 347 453 506 588 637 773 642 562 571 631 769 813 742 729 967 1198 1224 1319 1494 976 664 809 850 653 571 487 396 310 285 274 243 262 343 438 503 541 542 655 789 725 769 788 806 892 876 732 808 720 605 474 390 374 364 333 324 277 282 271 260 255 246 255 258 238 210 193 187 226 245 236 235 245 238 224 213 215 212 185 151 151 132 127 183 227 216 219 224 206 194 180 177 169 158 167 153 141 137 121 125 99 80 42 58 90 90 73 98 76 59 56 69 80 78 64 51 57 58 68 74 72 56 41 63 69 70 67 62 65 63 57 53 31 30 30 26 23 24 6 0 0 -6 -1 -1 -1 -2 -4 -6 -8 -12 -15 -18 -20 -20 -19 -15 -11 -8 -4 3 6 9 10 14 20 21 22 35 47 53 62 70 78 89 91 101 99 94 104 130 161 181 227 263 285 328 386 416 406 410 480 517 506 368 398 389 417 431 405 352 336 288 267 264 263 235 224 215 213 212 201 187 186 181 161 122 102 162 145 143 158 172 166 165 142 162 171 144 175 254 398 458 379 538 628 401 373 538 604 474 153 32 23 -5 -17 -30 -30 -30 -30 -30
-3014 -3003 -3007 -3022 -3058 -3059 -3059 -3022 -3008 -2976 -2991 -3045 -3115 -3201 -3200 -3193 -3120 -3018 -3198 -3201 -3188 -3191 -3169 -3116 -3045 -3002 -2941 -3090 -3495 -3672 -3793 -3306 -2856 -2903 -3076 -3235 -3398 -3468 -3587 -3589 -3546 -3523 -3681 -3940 -4000 -4000 -4004 -4003 -4003 -3998 -3995 -4001 -4091 -4168 -4191 -4325 -4548 -4519 -4423 -4404 -4394 -4370 -4464 -4597 -4591 -4509 -4495 -4417 -4395 -4429 -4417 -4409 -4298 -4207 -4192 -4189 -4101 -3999 -3971 -3965 -4165 -4503 -4575 -4621 -4628 -4572 -4277 -4085 -4426 -4589 -4594 -4591 -4552 -4522 -4407 -4434 -4595 -4720 -4752 -4780 -4786 -4706 -4797 -4783 -4805 -4819 -4825 -4823 -4822 -4823 -4807 -4804 -4806 -4798 -4751 -4692 -4678 -4682 -4650 -4607 -4658 -4692 -4699 -4718 -4696 -4586 -4525 -4496 -4468 -4615 -4608 -4554 -4497 -4453 -4344 -4092 -3977 -4036 -4030 -4084 -3922 -3428 -3058 -3420 -3592 -3112 -3154 -3124 -2702 -1994 -1213 -1237 -794 -779 -617 -447 -289 -215 -201 -189 -173 -173 -166 -147 -142 -142 -141 -141 -139 -137 -135 -132 -128 -124 -120 -116 -110 -104 -99 -78 -36 -30 -33 -34 -29 1 -34 -41 -28 -2 39 2 -27 -23 -25 -26 -24 -24 -16 -10 -8 -7 -6 -2 82 103 103 148 201 148 130 80 77 37 54 101 121 147 159 119 137 146 114 61 108 125 101 109 123 139 119 90 77 97 85 86 119 122 118 117 110 112 97 89 88 112 105 134 148 194 231 241 227 249 276 295 337 348 302 240 276 313 290 348 331 387 393 360 307 297 296 301 267 195 103 94 106 310 394 404 439 390 388 342 318 314 283 298 360 340 335 332 316 303 349 411 468 471 471 442 457 435 495 547 634 618 510 445 450 438 442 485 494 535 510 457 457 504 528 532 511 619 590 599 596 585 541 570 569 495 530 497 442 392 443 476 339 264 235 214 258 356 445 495 564 576 629 538 470 486 649 773 693 736 714 910 1219 1306 1235 1009 762 695 722 766 697 611 456 330 433 361 224 232 224 402 477 388 455 477 773 849 683 697 786 786 855 960 1009 1075 942 769 676 472 438 447 365 319 299 265 255 264 256 225 259 295 255 227 202 185 192 206 207 212 232 213 212 209 187 201 190 182 178 136 144 149 176 194 176 205 211 212 195 180 171 151 148 146 139 123 121 123 105 90 62 68 63 78 75 86 74 70 45 62 73 70 62 38 41 58 66 69 62 34 42 57 67 64 61 55 53 52 48 42 30 30 30 20 9 12 1 -1 -1 -1 -1 -1 -2 -3 -4 -6 -9 -12 -16 -19 -23 -23 -22 -16 -11 -5 -10 2 6 8 11 12 18 22 23 35 38 46 59 70 79 88 91 91 96 99 112 137 169 195 211 244 287 331 377 367 338 342 410 499 502 484 469 412 414 437 447 408 388 356 289 273 284 274 249 211 209 213 211 198 194 200 199 192 155 281 253 216 208 225 201 193 177 152 172 301 335 481 622 840 753 1146 916 799 622 872 900 750 466 258 136 92 10 -16 -28 -28 -30 -30
-3029 -3019 -3064 -3099 -3126 -3098 -3075 -2935 -2999 -2465 -3031 -3133 -3179 -3200 -3196 -3192 -3066 -3124 -3200 -3204 -3199 -3189 -3137 -3038 -3003 -2939 -2732 -2680 -2787 -3396 -3912 -3776 -3234 -2718 -3018 -3168 -3289 -3405 -3594 -3591 -3589 -3600 -3760 -3850 -3979 -3994 -4002 -4004 -4005 -4000 -4001 -4056 -4196 -4168 -4130 -4359 -4470 -4437 -4400 -4387 -4262 -4303 -4461 -4592 -4586 -4486 -4414 -4409 -4453 -4508 -4460 -4422 -4354 -4245 -4193 -4165 -4070 -4010 -4074 -4231 -4417 -4554 -4588 -4621 -4602 -4522 -4396 -3965 -4310 -4576 -4549 -4530 -4459 -4416 -4298 -4434 -4564 -4588 -4620 -4673 -4721 -4784 -4808 -4801 -4813 -4820 -4823 -4822 -4825 -4826 -4815 -4807 -4793 -4747 -4668 -4624 -4622 -4649 -4675 -4663 -4708 -4751 -4749 -4762 -4717 -4656 -4629 -4604 -4578 -4643 -4630 -4587 -4567 -4524 -4370 -4200 -4130 -4154 -4137 -4171 -4127 -3887 -3649 -3985 -3942 -3230 -3692 -3529 -3149 -2515 -1800 -2261 -1596 -1214 -865 -628 -354 -244 -204 -197 -175 -172 -161 -147 -140 -141 -142 -142 -140 -140 -138 -134 -128 -123 -118 -113 -108 -97 -84 -41 -6 -1 -3 -2 2 69 32 38 51 65 93 55 9 -5 -12 -15 -15 -15 -10 -4 -4 -4 -5 -8 81 133 143 151 209 210 200 190 137 77 81 123 143 162 162 141 146 139 107 78 87 114 117 133 105 112 101 101 71 85 101 121 131 127 140 136 105 112 110 82 75 116 133 142 123 149 200 242 281 221 251 270 324 348 277 205 245 321 254 258 289 333 333 300 303 320 355 316 310 230 98 96 106 299 324 382 382 359 346 341 325 322 341 362 377 358 380 361 344 306 325 377 429 504 495 435 464 450 478 490 542 531 616 488 507 461 473 522 499 484 484 448 437 473 483 473 489 583 629 610 616 599 579 572 545 507 509 494 416 390 363 349 306 329 311 287 254 312 393 492 583 543 405 389 487 548 691 611 778 758 721 703 859 912 941 928 824 667 600 548 529 598 495 358 422 464 246 195 172 279 343 466 451 370 512 637 619 636 673 693 777 959 1100 1073 1133 1028 897 700 643 571 444 305 298 242 250 245 230 204 209 218 208 202 171 172 191 186 167 182 216 202 206 199 175 180 164 180 192 204 238 199 169 146 138 190 210 199 195 171 154 154 137 122 109 118 111 101 99 85 89 79 56 52 49 57 70 77 58 59 65 63 63 53 55 64 64 64 64 38 40 58 63 51 49 47 42 40 37 35 31 21 21 14 2 4 1 -1 -1 -1 -1 -1 -2 -3 -4 -7 -9 -13 -17 -19 -24 -25 -23 -15 -9 -6 -10 1 5 7 10 11 15 21 24 35 37 45 57 74 86 87 91 91 98 116 129 152 174 202 212 253 287 317 340 354 348 346 381 438 559 561 538 469 423 464 476 488 441 463 376 347 311 301 265 214 192 213 212 209 207 232 244 254 269 335 337 297 292 281 255 218 187 161 308 479 614 799 1112 1512 1515 1739 1314 1249 1037 1128 1161 1031 698 743 504 454 192 52 0 -25 7 -22
-3037 -3033 -3167 -3180 -3178 -3155 -3121 -3056 -2888 -2779 -3078 -3187 -3199 -3193 -3175 -3186 -3044 -3191 -3200 -3198 -3191 -3188 -3094 -3008 -2993 -2958 -2672 -2506 -2846 -3346 -3866 -3814 -3624 -3152 -3250 -3084 -3075 -3092 -3180 -3332 -3534 -3614 -3672 -3731 -3919 -3963 -3998 -4005 -4010 -4011 -4003 -4292 -4338 -4324 -4329 -4357 -4204 -4313 -4388 -4133 -4087 -4174 -4553 -4588 -4539 -4438 -4437 -4458 -4532 -4552 -4516 -4440 -4323 -4219 -4181 -4173 -4175 -4042 -4354 -4528 -4585 -4589 -4597 -4622 -4597 -4570 -4557 -4389 -4441 -4492 -4437 -4421 -4368 -4259 -4185 -4303 -4437 -4461 -4468 -4466 -4653 -4757 -4791 -4799 -4803 -4804 -4813 -4820 -4821 -4830 -4820 -4810 -4747 -4669 -4586 -4500 -4534 -4598 -4661 -4684 -4742 -4788 -4788 -4794 -4764 -4742 -4722 -4644 -4653 -4665 -4655 -4618 -4600 -4581 -4423 -4346 -4337 -4262 -4210 -4229 -4203 -4101 -4116 -4154 -3982 -3836 -3961 -3780 -3306 -2841 -2697 -2863 -1983 -1380 -991 -805 -506 -311 -211 -183 -173 -170 -153 -148 -152 -146 -139 -141 -142 -140 -140 -136 -127 -121 -116 -110 -101 -90 -56 -22 2 2 2 3 88 179 96 136 162 166 128 69 13 -5 -9 -8 -10 -7 -4 -5 -4 -2 -11 -11 88 165 168 141 185 200 236 179 186 115 138 150 175 189 180 169 157 148 113 108 105 81 79 112 88 76 84 92 83 94 110 122 115 132 143 152 160 158 131 100 77 125 150 147 137 161 217 246 298 239 216 256 284 291 238 207 264 265 273 219 263 299 290 272 310 361 399 366 340 236 103 99 111 214 252 278 277 311 299 312 347 386 434 427 445 432 425 385 374 330 332 403 456 541 506 459 421 402 449 460 479 484 525 522 515 537 573 598 572 445 452 415 426 454 433 457 435 528 589 565 610 612 616 602 505 472 436 455 391 336 286 279 292 308 372 299 249 315 382 436 497 417 320 427 562 782 670 581 908 816 1089 1239 1090 984 1062 1163 1030 842 731 579 637 607 523 406 302 487 345 152 144 135 151 309 389 330 422 559 438 629 948 782 699 920 1067 1173 1145 1122 1056 978 743 674 544 444 361 289 334 310 265 269 253 228 185 162 155 177 185 182 165 144 181 173 211 182 168 161 145 139 159 204 256 247 200 152 134 174 185 184 208 180 168 165 151 131 109 99 113 116 105 91 76 77 82 75 58 4 18 72 52 51 62 58 56 46 51 57 63 62 58 44 43 52 52 44 41 38 36 35 33 30 28 14 4 3 0 0 0 -1 -1 -1 -2 -2 -3 -4 -5 -7 -9 -11 -16 -20 -24 -27 -24 -17 -7 17 -1 3 4 6 9 12 17 22 24 29 36 47 59 71 84 80 94 91 96 118 144 176 181 215 235 259 302 325 385 402 422 397 397 481 613 669 602 546 484 493 506 578 572 679 530 408 385 370 281 228 195 208 213 222 239 270 309 300 356 336 350 346 337 304 266 242 326 280 556 730 1098 1276 1678 2115 2060 1890 1637 1499 1383 1485 1433 1246 951 1219 1388 984 480 114 60 63 103 96
-3008 -3020 -3192 -3195 -3193 -3189 -3187 -3186 -3099 -3121 -3183 -3199 -3199 -3192 -3183 -3193 -3176 -3202 -3200 -3194 -3186 -3188 -3133 -3057 -3000 -2839 -2560 -2629 -2998 -3385 -3949 -3940 -3737 -3969 -4023 -3383 -3021 -2972 -2995 -3147 -3346 -3575 -3654 -3685 -3817 -3895 -3987 -4000 -4012 -4032 -4137 -4367 -4374 -4386 -4390 -4322 -4113 -4278 -4381 -4041 -4068 -4305 -4580 -4513 -4420 -4408 -4448 -4571 -4600 -4591 -4545 -4417 -4301 -4207 -4200 -4200 -4201 -4358 -4562 -4590 -4592 -4573 -4576 -4596 -4597 -4590 -4538 -4558 -4509 -4329 -4337 -4272 -4225 -4183 -4194 -4240 -4327 -4215 -4095 -4146 -4528 -4762 -4627 -4639 -4650 -4725 -4810 -4819 -4810 -4819 -4808 -4786 -4689 -4559 -4387 -4277 -4421 -4514 -4602 -4671 -4732 -4803 -4811 -4808 -4797 -4780 -4754 -4692 -4693 -4685 -4675 -4659 -4650 -4610 -4524 -4484 -4393 -4302 -4293 -4293 -4278 -4267 -4292 -4210 -4156 -3974 -3704 -3706 -3579 -3077 -2954 -2584 -1987 -1756 -1008 -896 -667 -497 -346 -218 -196 -172 -163 -141 -153 -148 -134 -137 -139 -140 -139 -136 -125 -119 -115 -108 -99 -84 -53 -36 0 1 2 3 183 221 205 188 239 239 168 125 110 7 -10 -3 -3 -4 -9 -9 -11 -4 -12 -11 69 113 145 196 208 169 217 229 206 181 165 185 211 225 212 188 174 157 142 139 110 139 169 84 72 65 81 98 101 106 101 105 152 160 173 183 167 168 213 228 148 104 132 150 150 175 231 250 256 312 201 208 218 262 237 224 235 268 238 239 254 273 289 274 304 333 434 422 332 179 110 104 112 171 211 248 231 262 277 298 343 420 454 436 476 447 444 421 411 366 350 418 467 536 502 442 437 388 394 457 481 480 473 563 715 835 830 664 576 598 480 464 427 427 426 437 431 480 539 555 585 542 556 571 483 483 386 354 311 275 224 255 266 261 307 294 232 285 317 436 477 355 469 717 727 701 635 738 963 972 1131 945 958 920 1005 1200 947 652 871 777 630 702 632 381 274 317 245 139 145 125 111 145 283 365 336 453 385 397 663 728 680 782 1052 1158 1157 1168 1093 1077 946 965 790 612 465 339 469 404 382 387 354 325 268 210 213 187 175 164 169 139 140 193 183 172 160 159 153 153 162 172 253 233 228 180 157 160 154 167 192 174 167 148 125 129 120 106 85 117 101 91 98 98 90 81 81 52 -9 10 38 52 59 53 47 41 45 47 51 40 26 31 44 44 46 38 35 36 36 33 30 28 26 20 0 -3 -9 -9 -4 -1 -1 -1 -2 -3 -3 -4 -5 -6 -9 -11 -14 -18 -23 -25 -24 -16 -10 27 3 3 4 5 5 10 18 22 27 27 32 44 55 63 57 68 95 105 107 121 137 185 209 244 268 286 357 382 477 503 499 452 459 465 735 664 628 603 537 554 584 666 689 750 638 534 496 432 353 265 237 213 229 258 290 280 388 425 540 439 427 348 336 317 324 375 531 438 913 1022 1527 1638 1864 2266 2439 2411 2058 1732 1542 1803 1789 1783 1509 1167 1669 1111 598 341 234 159 196 155
-3002 -3045 -3175 -3131 -3196 -3198 -3201 -3199 -3181 -3198 -3200 -3199 -3208 -3198 -3193 -3204 -3199 -3190 -3193 -3183 -3189 -3192 -3092 -2998 -2797 -2646 -2720 -2883 -3022 -3048 -3526 -3976 -4099 -4159 -4142 -3898 -3417 -3022 -3005 -3119 -3248 -3470 -3565 -3682 -3790 -3876 -3954 -3990 -4017 -4035 -4101 -4023 -4190 -4090 -4313 -4217 -4058 -4292 -4378 -4127 -4065 -4293 -4582 -4507 -4399 -4523 -4593 -4642 -4656 -4614 -4529 -4304 -4208 -4206 -4248 -4348 -4387 -4571 -4558 -4603 -4587 -4587 -4590 -4592 -4591 -4592 -4586 -4510 -4311 -4258 -4210 -4203 -4181 -4196 -4215 -4248 -4324 -4141 -4054 -4034 -4338 -4580 -4556 -4637 -4772 -4762 -4802 -4803 -4804 -4809 -4760 -4615 -4592 -4513 -4396 -4363 -4402 -4494 -4592 -4610 -4723 -4799 -4819 -4829 -4810 -4800 -4783 -4741 -4720 -4702 -4685 -4687 -4684 -4626 -4598 -4590 -4493 -4377 -4394 -4395 -4365 -4370 -4390 -4307 -4136 -3808 -3093 -3066 -2982 -2806 -2648 -2108 -1995 -1556 -1037 -931 -796 -744 -521 -255 -203 -197 -164 -133 -146 -156 -134 -133 -138 -139 -138 -132 -124 -118 -113 -107 -99 -61 -51 -41 -12 -3 -3 2 100 222 162 147 174 241 243 208 195 129 83 3 63 60 31 -9 12 -5 -13 -11 43 100 149 234 247 223 242 233 202 172 168 206 285 280 238 202 177 152 152 134 119 124 120 108 132 41 86 53 66 74 74 72 60 59 146 170 182 181 139 146 128 125 149 150 150 175 231 250 250 346 289 200 224 282 235 229 258 315 268 269 268 262 284 288 324 363 329 312 227 146 107 103 113 183 220 247 220 241 252 318 375 422 432 461 475 472 440 441 438 390 374 422 439 518 516 489 416 384 394 409 363 377 437 557 802 874 823 846 926 681 571 511 452 432 442 441 434 461 504 563 565 512 511 511 432 428 287 354 260 219 211 247 222 217 208 198 243 316 435 452 373 420 561 602 656 445 525 859 1006 630 587 643 651 856 945 872 665 496 507 818 785 491 364 255 242 406 212 134 135 133 111 110 140 168 176 185 340 612 597 477 581 683 1001 996 903 1378 1172 842 932 973 1000 791 640 554 498 506 505 397 387 346 348 255 222 174 163 148 143 156 120 183 184 173 172 155 133 166 179 174 116 150 179 154 143 135 162 165 188 163 177 163 135 106 125 132 107 68 83 71 95 90 85 71 78 63 53 33 37 49 56 52 44 47 34 40 33 27 22 38 43 42 38 37 34 32 30 25 24 25 25 19 0 -3 -10 -5 -1 -2 -2 -2 -3 -3 -3 -4 -5 -6 -7 -8 -12 -16 -19 -23 -23 -17 20 30 28 4 5 6 10 12 14 23 28 32 38 45 45 30 44 61 61 108 122 133 162 208 243 244 284 343 425 426 472 552 586 563 497 530 614 611 611 642 662 699 704 928 849 843 808 628 611 519 464 300 281 274 278 254 322 420 556 581 545 486 457 421 391 456 430 526 938 990 1521 1412 1634 1867 1885 2138 2342 2435 2134 1884 1697 1683 1754 1856 1621 1146 1427 1607 870 378 318 440 444 319
